# .PCD v0.7 - Point Cloud Data file format
VERSION 0.7
FIELDS x y z rgb
SIZE 4 4 4 4
TYPE F F F U
COUNT 1 1 1 1
WIDTH 1160
HEIGHT 1
VIEWPOINT 0 0 0 1 0 0 0
POINTS 1160
DATA ascii
-0.75817132 -1.3428013 0.75947624 1709841
-0.76096267 -1.3428013 0.75947624 1709841
-0.76375401 -1.3428015 0.75947618 1709841
-0.76654536 -1.3428015 0.75947618 1709841
-0.76933664 -1.3428015 0.75947618 1709841
-0.77212799 -1.3428015 0.75947618 1709841
-0.77491927 -1.3428015 0.75947618 1709841
-0.77771056 -1.3428015 0.75947618 1709841
-0.7805019 -1.3428015 0.75947618 1709841
-0.78329319 -1.3428015 0.75947618 1709841
-0.78608453 -1.3428015 0.75947618 1709841
-0.78887582 -1.3428015 0.75947618 1709585
-0.79166716 -1.3428015 0.75947618 1709585
-0.79445845 -1.3428015 0.75947618 1644049
-0.79724973 -1.3428015 0.75947618 1644049
-0.80004114 -1.3428016 0.75947613 1644049
-0.80283242 -1.3428016 0.75947613 1644049
-0.80562377 -1.3428016 0.75947613 1644049
-0.80841506 -1.3428016 0.75947613 1644049
-0.8112064 -1.3428016 0.75947613 1644049
-0.81399769 -1.3428016 0.75947613 1644049
-0.81678897 -1.3428016 0.75947613 1644049
-0.81958032 -1.3428016 0.75947613 1644049
-0.8223716 -1.3428016 0.75947613 1644049
-0.82516295 -1.3428016 0.75947613 1644049
-0.82795423 -1.3428016 0.75947613 1644049
-0.83074558 -1.3428016 0.75947613 1644049
-0.83353686 -1.3428016 0.75947613 1644049
-0.83632815 -1.3428016 0.75947613 1644049
-0.83911955 -1.3428017 0.75947607 1644049
-0.84191084 -1.3428017 0.75947607 1644049
-0.84470218 -1.3428017 0.75947607 1644049
-0.84749347 -1.3428017 0.75947607 1644049
-0.85028481 -1.3428017 0.75947607 1644049
-0.8530761 -1.3428017 0.75947607 1644049
-0.85586745 -1.3428017 0.75947607 1578513
-0.85865873 -1.3428017 0.75947607 1578513
-0.86145008 -1.3428017 0.75947607 1578513
-0.86424136 -1.3428017 0.75947607 1578513
-0.86703265 -1.3428017 0.75947607 1578257
-0.86982399 -1.3428017 0.75947607 1578257
0.91195071 -1.342797 0.75613534 3616029
0.9091565 -1.342797 0.75613534 3616029
0.90636241 -1.342797 0.75613534 3550493
0.90356821 -1.342797 0.75613534 3550493
0.900774 -1.342797 0.75613534 3550493
0.8979798 -1.342797 0.75613534 3550493
0.89518559 -1.342797 0.75613534 3550493
0.89239144 -1.342797 0.75613534 3550493
0.88959724 -1.342797 0.75613534 3550493
0.88680303 -1.342797 0.75613534 3550493
0.88400882 -1.342797 0.75613534 3550493
0.88121462 -1.342797 0.75613534 3550237
0.87842047 -1.342797 0.75613534 3550237
0.87562627 -1.342797 0.75613534 3550237
0.87283206 -1.342797 0.75613534 3550237
0.87003791 -1.3427972 0.75613523 3550237
0.86724377 -1.3427972 0.75613523 3550237
0.86444956 -1.3427972 0.75613523 3550237
0.86165535 -1.3427972 0.75613523 3550237
0.85886115 -1.3427972 0.75613523 3550237
0.85606694 -1.3427972 0.75613523 3550237
0.8532728 -1.3427972 0.75613523 3550237
0.85047859 -1.3427972 0.75613523 3484701
0.84768438 -1.3427972 0.75613523 3484701
0.84489018 -1.3427972 0.75613523 3484701
0.84209597 -1.3427972 0.75613523 3484701
0.83930182 -1.3427972 0.75613523 3484701
0.83650762 -1.3427972 0.75613523 3484701
0.83371347 -1.3427973 0.75613517 3484701
0.83091927 -1.3427973 0.75613517 3484701
0.82812506 -1.3427973 0.75613517 3484701
0.82533091 -1.3427973 0.75613517 3484701
0.82253671 -1.3427973 0.75613517 3484701
0.8197425 -1.3427973 0.75613517 3484701
0.81694829 -1.3427973 0.75613517 3484701
0.81415409 -1.3427973 0.75613517 3484700
0.81135994 -1.3427973 0.75613517 3484444
0.80856574 -1.3427973 0.75613517 3484444
0.80577153 -1.3427973 0.75613517 3484444
0.80297732 -1.3427973 0.75613517 3484444
0.80018312 -1.3427973 0.75613517 3484444
0.79738897 -1.3427973 0.75613517 3484444
0.79459482 -1.3427974 0.75613511 3418908
0.79180062 -1.3427974 0.75613511 3418908
0.78900641 -1.3427974 0.75613511 3418908
0.78621221 -1.3427974 0.75613511 3418908
0.78341806 -1.3427974 0.75613511 3418908
0.78062385 -1.3427974 0.75613511 3418908
0.77782965 -1.3427974 0.75613511 3418908
0.77503544 -1.3427974 0.75613511 3418908
0.77224123 -1.3427974 0.75613511 3418908
0.76944709 -1.3427974 0.75613511 3418908
0.76665288 -1.3427974 0.75613511 3418908
0.76385868 -1.3427974 0.75613511 3418908
0.76106447 -1.3427974 0.75613511 3418908
0.75827032 -1.3427975 0.75613505 3418908
0.75547612 -1.3427975 0.75613505 3418908
0.75268197 -1.3427975 0.75613505 3418908
0.74988776 -1.3427975 0.75613505 3418908
0.74709356 -1.3427975 0.75613505 3418908
0.74429935 -1.3427975 0.75613505 3418908
0.74150515 -1.3427975 0.75613505 3418652
0.738711 -1.3427975 0.75613505 3353116
0.73591679 -1.3427975 0.75613505 3353116
0.73312259 -1.3427975 0.75613505 3353116
0.73032838 -1.3427975 0.75613505 3353116
0.72753417 -1.3427975 0.75613505 3353116
0.72474003 -1.3427975 0.75613505 3353116
0.72194588 -1.3427976 0.75613499 3353116
0.71915168 -1.3427976 0.75613499 3353116
0.71635747 -1.3427976 0.75613499 3353116
0.71356326 -1.3427976 0.75613499 3353116
0.71076906 -1.3427976 0.75613499 3353116
0.70797491 -1.3427976 0.75613499 3353116
0.7051807 -1.3427976 0.75613499 3353116
0.7023865 -1.3427976 0.75613499 3353115
0.69959229 -1.3427976 0.75613499 3353115
0.69679809 -1.3427976 0.75613499 3353115
0.69400394 -1.3427976 0.75613499 3353115
0.69120973 -1.3427976 0.75613499 3353115
0.68841553 -1.3427976 0.75613499 3353115
0.68562138 -1.3427978 0.75613487 3353115
0.68282717 -1.3427978 0.75613487 3287579
0.68003297 -1.3427978 0.75613487 3287579
0.67723876 -1.3427978 0.75613487 3287579
0.67444462 -1.3427978 0.75613487 3287579
0.67165041 -1.3427978 0.75613487 3287579
0.6688562 -1.3427978 0.75613487 3287323
0.666062 -1.3427978 0.75613487 3287323
0.66326779 -1.3427978 0.75613487 3287323
0.66047364 -1.3427978 0.75613487 3287323
0.65767944 -1.3427978 0.75613487 3287323
0.65488523 -1.3427978 0.75613487 3287323
0.65209103 -1.3427978 0.75613487 3287323
0.64929682 -1.3427978 0.75613487 3287323
0.64650267 -1.3427979 0.75613481 3287323
0.64370847 -1.3427979 0.75613481 3287323
0.64091432 -1.3427979 0.75613481 3287323
0.63812011 -1.3427979 0.75613481 3287323
0.63532591 -1.3427979 0.75613481 3287323
0.6325317 -1.3427979 0.75613481 3287323
0.6297375 -1.3427979 0.75613481 3287323
0.62694335 -1.3427979 0.75613481 3221787
0.62414914 -1.3427979 0.75613481 3221787
0.62135494 -1.3427979 0.75613481 3221787
0.61856073 -1.3427979 0.75613481 3221787
0.61576653 -1.3427979 0.75613481 3221787
0.61297232 -1.3427979 0.75613481 3221787
0.61017817 -1.3427979 0.75613475 3221787
0.60738403 -1.3427979 0.75613475 3221787
0.60458982 -1.3427979 0.75613475 3221787
0.60179561 -1.3427979 0.75613475 3221787
0.59900141 -1.3427979 0.75613475 3221531
0.5962072 -1.3427979 0.75613475 3221531
0.593413 -1.3427979 0.75613475 3221530
0.59061885 -1.3427979 0.75613475 3221530
0.58782464 -1.3427979 0.75613475 3221530
0.58503044 -1.3427979 0.75613475 3221530
0.58223623 -1.3427979 0.75613475 3221530
0.57944202 -1.3427979 0.75613475 3221530
0.57664788 -1.3427979 0.75613475 3221530
0.57385367 -1.342798 0.75613469 3221530
0.57105953 -1.342798 0.75613469 3221530
0.56826532 -1.342798 0.75613469 3155994
0.56547111 -1.342798 0.75613469 3155994
0.56267691 -1.342798 0.75613469 3155994
0.5598827 -1.342798 0.75613469 3155994
0.55708849 -1.342798 0.75613469 3155994
0.55429435 -1.342798 0.75613469 3155994
0.55150014 -1.342798 0.75613469 3155994
0.54870594 -1.342798 0.75613469 3155994
0.54591173 -1.342798 0.75613469 3155994
0.54311752 -1.342798 0.75613469 3155994
0.54032332 -1.342798 0.75613469 3155994
0.53752917 -1.342798 0.75613469 3155994
0.53473496 -1.3427981 0.75613463 3155994
0.53194082 -1.3427981 0.75613463 3155994
0.52914661 -1.3427981 0.75613463 3155738
0.52635241 -1.3427981 0.75613463 3155738
0.5235582 -1.3427981 0.75613463 3155738
0.52076399 -1.3427981 0.75613463 3155738
0.51796979 -1.3427981 0.75613463 3155738
0.51517558 -1.3427981 0.75613463 3155738
0.51238143 -1.3427981 0.75613463 3090202
0.50958723 -1.3427981 0.75613463 3090202
0.50679302 -1.3427981 0.75613463 3090202
0.50399882 -1.3427981 0.75613463 3090202
0.50120461 -1.3427981 0.75613463 3090202
0.49841046 -1.3427982 0.75613457 3090202
0.49561626 -1.3427982 0.75613457 3090202
0.49282205 -1.3427982 0.75613457 3090202
0.4900279 -1.3427982 0.75613457 3090202
0.4872337 -1.3427982 0.75613457 3090202
0.48443949 -1.3427982 0.75613457 3090202
0.48164529 -1.3427982 0.75613457 3090201
0.47885108 -1.3427982 0.75613457 3090201
0.47605687 -1.3427982 0.75613457 3090201
0.47326273 -1.3427982 0.75613457 3090201
0.47046852 -1.3427982 0.75613457 3090201
0.46767431 -1.3427982 0.75613457 3090201
0.46488011 -1.3427982 0.75613457 3090201
0.46208596 -1.3427984 0.75613451 3090201
0.45929176 -1.3427984 0.75613451 3090201
0.45649755 -1.3427984 0.75613451 3024409
0.45370334 -1.3427984 0.75613451 3024409
0.45090914 -1.3427984 0.75613451 3024409
0.44811499 -1.3427984 0.75613451 3024409
0.44532079 -1.3427984 0.75613451 3024409
0.44252658 -1.3427984 0.75613451 3024409
0.43973237 -1.3427984 0.75613451 3024409
0.43693817 -1.3427984 0.75613451 3024409
0.43414396 -1.3427984 0.75613451 3024409
0.43134981 -1.3427984 0.75613451 3024409
0.42855561 -1.3427984 0.75613451 3024409
0.4257614 -1.3427985 0.75613439 3024409
0.42296726 -1.3427985 0.75613439 3024409
0.42017305 -1.3427985 0.75613439 3024409
0.41737884 -1.3427985 0.75613439 3024409
0.41458464 -1.3427985 0.75613439 3024409
0.41179043 -1.3427985 0.75613439 3024409
0.40899622 -1.3427985 0.75613439 3024409
0.40620208 -1.3427985 0.75613439 3024409
0.40340787 -1.3427985 0.75613439 3024409
0.40061367 -1.3427985 0.75613439 3024409
0.39781946 -1.3427985 0.75613439 2958873
0.39502525 -1.3427985 0.75613439 2958873
0.39223105 -1.3427985 0.75613439 2958873
0.38943684 -1.3427985 0.75613439 2958873
0.38664269 -1.3427986 0.75613433 2958617
0.38384849 -1.3427986 0.75613433 2958617
0.38105428 -1.3427986 0.75613433 2958617
0.37826014 -1.3427986 0.75613433 2958617
0.37546593 -1.3427986 0.75613433 2958617
0.37267172 -1.3427986 0.75613433 2958616
0.36987752 -1.3427986 0.75613433 2958616
0.36708331 -1.3427986 0.75613433 2958616
0.3642891 -1.3427986 0.75613433 2958616
0.3614949 -1.3427986 0.75613433 2958616
0.35870075 -1.3427986 0.75613433 2958616
0.35590655 -1.3427986 0.75613433 2958616
0.35311234 -1.3427986 0.75613433 2958616
0.35031819 -1.3427987 0.75613427 2958616
0.34752399 -1.3427987 0.75613427 2958616
0.34472978 -1.3427987 0.75613427 2958616
0.34193558 -1.3427987 0.75613427 2958616
0.33914137 -1.3427987 0.75613427 2958616
0.33634716 -1.3427987 0.75613427 2893080
0.33355296 -1.3427987 0.75613427 2893080
0.33075881 -1.3427987 0.75613427 2893080
0.3279646 -1.3427987 0.75613427 2893080
0.3251704 -1.3427987 0.75613427 2893080
0.32237619 -1.3427987 0.75613427 2893080
0.31958199 -1.3427987 0.75613427 2893080
0.31678778 -1.3427987 0.75613427 2892824
0.31399363 -1.3427987 0.75613421 2892824
0.31119943 -1.3427987 0.75613421 2892824
0.30840522 -1.3427987 0.75613421 2892824
0.30561101 -1.3427987 0.75613421 2892824
0.30281681 -1.3427987 0.75613421 2892824
0.30002266 -1.3427987 0.75613421 2892824
0.29722846 -1.3427987 0.75613421 2892824
0.29443425 -1.3427987 0.75613421 2892824
0.29164004 -1.3427987 0.75613421 2892824
0.28884584 -1.3427987 0.75613421 2892824
0.28605163 -1.3427987 0.75613421 2892824
0.28325742 -1.3427987 0.75613421 2892824
0.28046328 -1.3427987 0.75613421 2892823
0.27766907 -1.3427987 0.75613421 2892823
0.27487487 -1.3427988 0.75613415 2892823
0.27208066 -1.3427988 0.75613415 2827287
0.26928648 -1.3427988 0.75613415 2827287
0.26649231 -1.3427988 0.75613415 2827287
0.2636981 -1.3427988 0.75613415 2827287
0.26090389 -1.3427988 0.75613415 2827287
0.25810969 -1.3427988 0.75613415 2827287
0.25531548 -1.3427988 0.75613415 2827287
0.25252131 -1.3427988 0.75613415 2827287
0.2497271 -1.3427988 0.75613415 2827287
0.24693291 -1.3427988 0.75613415 2827287
0.2441387 -1.3427988 0.75613415 2827031
0.24134451 -1.3427988 0.75613415 2827031
0.23855034 -1.3427989 0.75613409 2827031
0.23575613 -1.3427989 0.75613409 2827031
0.23296194 -1.3427989 0.75613409 2827031
0.23016773 -1.3427989 0.75613409 2827031
0.22737354 -1.3427989 0.75613409 2827031
0.22457933 -1.3427989 0.75613409 2827031
0.22178514 -1.3427989 0.75613409 2827031
0.21899094 -1.3427989 0.75613409 2827031
0.21619675 -1.3427989 0.75613409 2827031
0.21340255 -1.3427989 0.75613409 2827031
0.21060835 -1.3427989 0.75613409 2761495
0.20781416 -1.3427989 0.75613409 2761495
0.20501995 -1.3427989 0.75613409 2761495
0.20222577 -1.3427991 0.75613397 2761495
0.19943157 -1.3427991 0.75613397 2761495
0.19663738 -1.3427991 0.75613397 2761495
0.19384317 -1.3427991 0.75613397 2761495
0.19104898 -1.3427991 0.75613397 2761494
0.18825479 -1.3427991 0.75613397 2761494
0.18546058 -1.3427991 0.75613397 2761494
0.18266639 -1.3427991 0.75613397 2761494
0.17987218 -1.3427991 0.75613397 2761494
0.17707799 -1.3427991 0.75613397 2761494
0.17428379 -1.3427991 0.75613397 2761494
0.1714896 -1.3427991 0.75613397 2761238
0.16869539 -1.3427991 0.75613397 2761238
0.16590121 -1.3427992 0.75613391 2761238
0.16310701 -1.3427992 0.75613391 2761238
0.16031282 -1.3427992 0.75613391 2761238
0.15751861 -1.3427992 0.75613391 2761238
0.15472442 -1.3427992 0.75613391 2761238
0.15193021 -1.3427992 0.75613391 2761238
0.14913602 -1.3427992 0.75613391 2761238
0.14634183 -1.3427992 0.75613391 2695702
0.14354762 -1.3427992 0.75613391 2695702
0.14075342 -1.3427992 0.75613391 2695702
0.13795923 -1.3427992 0.75613391 2695702
0.13516504 -1.3427992 0.75613391 2695702
0.13237083 -1.3427992 0.75613391 2695702
0.12957662 -1.3427992 0.75613391 2695702
0.12678245 -1.3427993 0.75613391 2695702
0.12398824 -1.3427993 0.75613391 2695702
0.12119404 -1.3427993 0.75613391 2695702
0.11839984 -1.3427993 0.75613391 2695702
0.11560564 -1.3427993 0.75613391 2695702
0.11281145 -1.3427993 0.75613391 2695702
0.11001725 -1.3427993 0.75613391 2695702
0.10722305 -1.3427993 0.75613391 2695702
0.10442885 -1.3427993 0.75613391 2695702
0.10163466 -1.3427993 0.75613391 2695446
0.09884046 -1.3427993 0.75613391 2695446
0.096046261 -1.3427993 0.75613391 2695445
0.093252063 -1.3427993 0.75613391 2695445
0.090457864 -1.3427994 0.75613385 2695445
0.087663665 -1.3427994 0.75613385 2695445
0.084869467 -1.3427994 0.75613385 2695445
0.082075268 -1.3427994 0.75613385 2629909
0.079281077 -1.3427994 0.75613385 2629909
0.076486871 -1.3427994 0.75613385 2629909
0.073692679 -1.3427994 0.75613385 2629909
0.070898473 -1.3427994 0.75613385 2629909
0.068104282 -1.3427994 0.75613385 2629909
0.065310076 -1.3427994 0.75613385 2629909
0.062515885 -1.3427994 0.75613385 2629909
0.059721682 -1.3427994 0.75613385 2629909
0.056927484 -1.3427994 0.75613385 2629909
0.054133289 -1.3427994 0.75613379 2629909
0.05133909 -1.3427994 0.75613379 2629909
0.048544891 -1.3427994 0.75613379 2629909
0.045750692 -1.3427994 0.75613379 2629909
0.042956494 -1.3427994 0.75613379 2629909
0.040162295 -1.3427994 0.75613379 2629909
0.037368093 -1.3427994 0.75613379 2629909
0.034573894 -1.3427994 0.75613379 2629909
0.031779695 -1.3427994 0.75613379 2629909
0.028985497 -1.3427994 0.75613379 2629653
0.026191298 -1.3427994 0.75613379 2629653
0.023397099 -1.3427994 0.75613379 2629653
0.020602901 -1.3427994 0.75613379 2629653
0.017808702 -1.3427994 0.75613379 2564117
0.015014502 -1.3427994 0.75613368 2564117
0.012220304 -1.3427994 0.75613368 2564117
0.0094261039 -1.3427994 0.75613368 2564117
0.0066319052 -1.3427994 0.75613368 2564117
0.0038377065 -1.3427994 0.75613368 2564117
0.001043506 -1.3427994 0.75613368 2564116
-0.0017506927 -1.3427994 0.75613368 2564116
-0.0045448914 -1.3427994 0.75613368 2564116
-0.0073390901 -1.3427994 0.75613368 2564116
-0.010133289 -1.3427994 0.75613368 2564116
-0.012927487 -1.3427994 0.75613368 2564116
-0.015721686 -1.3427994 0.75613368 2564116
-0.018515889 -1.3427994 0.75613368 2564116
-0.021310091 -1.3427995 0.75613368 2564116
-0.02410429 -1.3427995 0.75613368 2564116
-0.026898488 -1.3427995 0.75613368 2564116
-0.029692687 -1.3427995 0.75613368 2564116
-0.032486886 -1.3427995 0.75613368 2564116
-0.035281084 -1.3427995 0.75613368 2564116
-0.038075283 -1.3427995 0.75613368 2564116
-0.040869482 -1.3427995 0.75613368 2564116
-0.043663681 -1.3427995 0.75613368 2563860
-0.046457879 -1.3427995 0.75613368 2498324
-0.049252085 -1.3427995 0.75613368 2498324
-0.052046284 -1.3427995 0.75613368 2498324
-0.054840483 -1.3427995 0.75613368 2498324
-0.057634689 -1.3427997 0.75613356 2498324
-0.060428888 -1.3427997 0.75613356 2498324
-0.063223086 -1.3427997 0.75613356 2498324
-0.066017285 -1.3427997 0.75613356 2498324
-0.068811484 -1.3427997 0.75613356 2498324
-0.071605682 -1.3427997 0.75613356 2498324
-0.074399881 -1.3427997 0.75613356 2498324
-0.07719408 -1.3427997 0.75613356 2498324
-0.079988286 -1.3427997 0.75613356 2498324
-0.082782485 -1.3427997 0.75613356 2498324
-0.085576683 -1.3427997 0.75613356 2498324
-0.088370882 -1.3427997 0.75613356 2498324
-0.091165081 -1.3427997 0.75613356 2498324
-0.093959279 -1.3427997 0.75613356 2498323
-0.096753486 -1.3427998 0.7561335 2498323
-0.099547692 -1.3427998 0.7561335 2498323
-0.10234189 -1.3427998 0.7561335 2498323
-0.10513608 -1.3427998 0.7561335 2498323
-0.10793029 -1.3427998 0.7561335 2432787
-0.11072449 -1.3427998 0.7561335 2432787
-0.11351869 -1.3427998 0.7561335 2432787
-0.11631289 -1.3427998 0.7561335 2432531
-0.11910708 -1.3427998 0.7561335 2432531
-0.12190129 -1.3427998 0.7561335 2432531
-0.12469548 -1.3427998 0.7561335 2432531
-0.12748969 -1.3427998 0.7561335 2432531
-0.13028389 -1.3427998 0.7561335 2432531
-0.13307808 -1.3427998 0.7561335 2432531
-0.13587229 -1.3427999 0.75613344 2432531
-0.1386665 -1.3427999 0.75613344 2432531
-0.1414607 -1.3427999 0.75613344 2432531
-0.14425489 -1.3427999 0.75613344 2432531
-0.1470491 -1.3427999 0.75613344 2432531
-0.14984329 -1.3427999 0.75613344 2432531
-0.1526375 -1.3427999 0.75613344 2432531
-0.1554317 -1.3427999 0.75613344 2432531
-0.15822589 -1.3427999 0.75613344 2432531
-0.1610201 -1.3427999 0.75613344 2432531
-0.16381429 -1.3427999 0.75613344 2432531
-0.1666085 -1.3427999 0.75613344 2432531
-0.16940269 -1.3427999 0.75613344 2432531
-0.17219689 -1.3427999 0.75613344 2366995
-0.17499112 -1.3428 0.75613338 2366995
-0.17778531 -1.3428 0.75613338 2366995
-0.18057951 -1.3428 0.75613338 2366995
-0.1833737 -1.3428 0.75613338 2366995
-0.18616791 -1.3428 0.75613338 2366995
-0.18896212 -1.3428 0.75613338 2366739
-0.19175631 -1.3428 0.75613338 2366738
-0.19455051 -1.3428 0.75613338 2366738
-0.19734471 -1.3428 0.75613338 2366738
-0.20013891 -1.3428 0.75613338 2366738
-0.20293312 -1.3428 0.75613338 2366738
-0.20572731 -1.3428 0.75613338 2366738
-0.20852152 -1.3428 0.75613338 2366738
-0.21131574 -1.3428001 0.75613332 2366738
-0.21410993 -1.3428001 0.75613332 2366738
-0.21690413 -1.3428001 0.75613332 2366738
-0.21969832 -1.3428001 0.75613332 2366738
-0.22249253 -1.3428001 0.75613332 2366738
-0.22528674 -1.3428001 0.75613332 2366738
-0.22808094 -1.3428001 0.75613332 2366738
-0.23087512 -1.3428001 0.75613332 2366738
-0.23366933 -1.3428001 0.75613332 2366738
-0.23646353 -1.3428001 0.75613332 2301202
-0.23925774 -1.3428001 0.75613332 2301202
-0.24205194 -1.3428001 0.75613332 2301202
-0.24484615 -1.3428001 0.75613332 2301202
-0.24764033 -1.3428001 0.75613332 2301202
-0.25043458 -1.3428003 0.7561332 2301202
-0.25322878 -1.3428003 0.7561332 2301202
-0.25602293 -1.3428003 0.7561332 2301202
-0.25881714 -1.3428003 0.7561332 2301202
-0.26161134 -1.3428003 0.7561332 2300946
-0.26440555 -1.3428003 0.7561332 2300946
-0.26719975 -1.3428003 0.7561332 2300946
-0.26999396 -1.3428003 0.7561332 2300946
-0.27278817 -1.3428003 0.7561332 2300946
-0.27558237 -1.3428003 0.7561332 2300946
-0.27837658 -1.3428003 0.7561332 2300946
-0.28117079 -1.3428003 0.7561332 2300946
-0.28396499 -1.3428003 0.7561332 2300946
-0.28675914 -1.3428003 0.7561332 2300946
-0.2895534 -1.3428004 0.75613314 2300946
-0.29234761 -1.3428004 0.75613314 2300945
-0.29514182 -1.3428004 0.75613314 2300945
-0.29793596 -1.3428004 0.75613314 2235409
-0.30073017 -1.3428004 0.75613314 2235409
-0.30352437 -1.3428004 0.75613314 2235409
-0.30631858 -1.3428004 0.75613314 2235409
-0.30911279 -1.3428004 0.75613314 2235409
-0.31190699 -1.3428004 0.75613314 2235409
-0.3147012 -1.3428004 0.75613314 2235409
-0.31749541 -1.3428004 0.75613314 2235409
-0.32028961 -1.3428004 0.75613314 2235409
-0.32308382 -1.3428004 0.75613314 2235409
-0.32587802 -1.3428004 0.75613308 2235409
-0.32867223 -1.3428004 0.75613308 2235409
-0.33146644 -1.3428004 0.75613308 2235409
-0.33426064 -1.3428004 0.75613308 2235153
-0.33705485 -1.3428004 0.75613308 2235153
-0.33984905 -1.3428004 0.75613308 2235153
-0.34264326 -1.3428004 0.75613308 2235153
-0.34543741 -1.3428004 0.75613308 2235153
-0.34823161 -1.3428004 0.75613308 2235153
-0.35102582 -1.3428004 0.75613308 2235153
-0.35382003 -1.3428004 0.75613308 2235153
-0.35661423 -1.3428004 0.75613308 2235153
-0.35940844 -1.3428004 0.75613308 2235153
-0.36220264 -1.3428004 0.75613308 2169617
-0.36499685 -1.3428005 0.75613302 2169617
-0.36779106 -1.3428005 0.75613302 2169617
-0.37058526 -1.3428005 0.75613302 2169617
-0.37337947 -1.3428005 0.75613302 2169617
-0.37617368 -1.3428005 0.75613302 2169617
-0.37896788 -1.3428005 0.75613302 2169617
-0.38176209 -1.3428005 0.75613302 2169617
-0.38455629 -1.3428005 0.75613302 2169617
-0.3873505 -1.3428005 0.75613302 2169617
-0.39014471 -1.3428005 0.75613302 2169616
-0.39293891 -1.3428005 0.75613302 2169616
-0.39573306 -1.3428005 0.75613302 2169616
-0.39852726 -1.3428005 0.75613302 2169616
-0.40132147 -1.3428005 0.75613302 2169616
-0.40411574 -1.3428006 0.75613296 2169360
-0.40690994 -1.3428006 0.75613296 2169360
-0.40970415 -1.3428006 0.75613296 2169360
-0.4124983 -1.3428006 0.75613296 2169360
-0.4152925 -1.3428006 0.75613296 2169360
-0.41808671 -1.3428006 0.75613296 2103824
-0.42088091 -1.3428006 0.75613296 2103824
-0.42367512 -1.3428006 0.75613296 2103824
-0.42646933 -1.3428006 0.75613296 2103824
-0.42926353 -1.3428006 0.75613296 2103824
-0.43205774 -1.3428006 0.75613296 2103824
-0.43485194 -1.3428006 0.75613296 2103824
-0.43764615 -1.3428006 0.75613296 2103824
-0.44044036 -1.3428006 0.75613296 2103824
-0.44323456 -1.3428007 0.7561329 2103824
-0.44602877 -1.3428007 0.7561329 2103824
-0.44882298 -1.3428007 0.7561329 2103824
-0.45161718 -1.3428007 0.7561329 2103824
-0.45441139 -1.3428007 0.7561329 2103824
-0.45720559 -1.3428007 0.7561329 2103824
-0.4599998 -1.3428007 0.7561329 2103824
-0.46279401 -1.3428007 0.7561329 2103824
-0.46558821 -1.3428007 0.7561329 2103824
-0.46838242 -1.3428007 0.7561329 2103824
-0.47117656 -1.3428007 0.7561329 2103568
-0.47397077 -1.3428007 0.7561329 2038032
-0.47676498 -1.3428007 0.7561329 2038032
-0.47955924 -1.3428009 0.75613284 2038032
-0.48235345 -1.3428009 0.75613284 2038032
-0.48514766 -1.3428009 0.75613284 2038031
-0.4879418 -1.3428009 0.75613284 2038031
-0.49073601 -1.3428009 0.75613284 2038031
-0.49353021 -1.3428009 0.75613284 2038031
-0.49632442 -1.3428009 0.75613284 2038031
-0.49911863 -1.3428009 0.75613284 2038031
-0.50191283 -1.3428009 0.75613284 2038031
-0.50470704 -1.3428009 0.75613284 2038031
-0.50750124 -1.3428009 0.75613284 2038031
-0.51029545 -1.3428009 0.75613284 2038031
-0.51308966 -1.3428009 0.75613284 2038031
-0.51588386 -1.3428009 0.75613284 2038031
-0.51867807 -1.342801 0.75613272 2038031
-0.52147228 -1.342801 0.75613272 2038031
-0.52426648 -1.342801 0.75613272 2038031
-0.52706069 -1.342801 0.75613272 2038031
-0.52985489 -1.342801 0.75613272 1972495
-0.5326491 -1.342801 0.75613272 1972495
-0.53544331 -1.342801 0.75613272 1972239
-0.53823751 -1.342801 0.75613272 1972239
-0.54103172 -1.342801 0.75613272 1972239
-0.54382592 -1.342801 0.75613272 1972239
-0.54662013 -1.342801 0.75613272 1972239
-0.54941434 -1.342801 0.75613272 1972239
-0.55220854 -1.342801 0.75613272 1972239
-0.55500269 -1.342801 0.75613272 1972239
-0.55779696 -1.3428011 0.75613266 1972239
-0.56059116 -1.3428011 0.75613266 1972239
-0.56338537 -1.3428011 0.75613266 1972239
-0.56617957 -1.3428011 0.75613266 1972239
-0.56897378 -1.3428011 0.75613266 1972239
-0.57176799 -1.3428011 0.75613266 1972239
-0.57456219 -1.3428011 0.75613266 1972239
-0.5773564 -1.3428011 0.75613266 1972239
-0.5801506 -1.3428011 0.75613266 1972239
-0.58294481 -1.3428011 0.75613266 1972238
-0.58573902 -1.3428011 0.75613266 1906702
-0.58853316 -1.3428011 0.75613266 1906702
-0.59132737 -1.3428011 0.75613266 1906702
-0.59412158 -1.3428011 0.75613266 1906702
-0.59691584 -1.3428012 0.7561326 1906702
-0.59971005 -1.3428012 0.7561326 1906702
-0.60250425 -1.3428012 0.7561326 1906446
-0.60529846 -1.3428012 0.7561326 1906446
-0.60809267 -1.3428012 0.7561326 1906446
-0.61088687 -1.3428012 0.7561326 1906446
-0.61368108 -1.3428012 0.7561326 1906446
-0.61647528 -1.3428012 0.7561326 1906446
-0.61926949 -1.3428012 0.7561326 1906446
-0.62206364 -1.3428012 0.7561326 1906446
-0.62485784 -1.3428012 0.7561326 1906446
-0.62765205 -1.3428012 0.7561326 1906446
-0.63044626 -1.3428012 0.7561326 1906446
-0.63324052 -1.3428012 0.75613254 1906446
-0.63603473 -1.3428012 0.75613254 1906446
-0.63882893 -1.3428012 0.75613254 1906446
-0.64162314 -1.3428012 0.75613254 1840910
-0.64441735 -1.3428012 0.75613254 1840910
-0.64721155 -1.3428012 0.75613254 1840910
-0.65000576 -1.3428012 0.75613254 1840910
-0.65279996 -1.3428012 0.75613254 1840910
-0.65559417 -1.3428012 0.75613254 1840910
-0.65838838 -1.3428012 0.75613254 1840910
-0.66118258 -1.3428012 0.75613254 1840910
-0.66397673 -1.3428012 0.75613254 1840910
-0.66677094 -1.3428012 0.75613254 1840910
-0.66956514 -1.3428012 0.75613254 1840654
-0.67235941 -1.3428013 0.75613248 1840654
-0.67515361 -1.3428013 0.75613248 1840654
-0.67794782 -1.3428013 0.75613248 1840654
-0.68074203 -1.3428013 0.75613248 1840653
-0.68353623 -1.3428013 0.75613248 1840653
-0.68633044 -1.3428013 0.75613248 1840653
-0.68912464 -1.3428013 0.75613248 1840653
-0.69191885 -1.3428013 0.75613248 1840653
-0.69471306 -1.3428013 0.75613248 1840653
-0.69750726 -1.3428013 0.75613248 1775117
-0.70030147 -1.3428013 0.75613248 1775117
-0.70309567 -1.3428013 0.75613248 1775117
-0.70588988 -1.3428013 0.75613248 1775117
-0.70868409 -1.3428013 0.75613248 1775117
-0.71147829 -1.3428015 0.75613242 1775117
-0.7142725 -1.3428015 0.75613242 1775117
-0.71706671 -1.3428015 0.75613242 1775117
-0.71986091 -1.3428015 0.75613242 1775117
-0.72265512 -1.3428015 0.75613242 1775117
-0.72544932 -1.3428015 0.75613242 1775117
-0.72824353 -1.3428015 0.75613242 1775117
-0.73103774 -1.3428015 0.75613242 1775117
-0.73383194 -1.3428015 0.75613242 1775117
-0.73662615 -1.3428015 0.75613242 1775117
-0.73942035 -1.3428015 0.75613242 1774861
-0.74221456 -1.3428015 0.75613242 1774861
-0.74500877 -1.3428015 0.75613242 1774861
-0.74780303 -1.3428016 0.75613236 1774861
-0.75059724 -1.3428016 0.75613236 1774861
-0.75339144 -1.3428016 0.75613236 1774861
-0.75618565 -1.3428016 0.75613236 1709325
-0.75897986 -1.3428016 0.75613236 1709325
-0.76177406 -1.3428016 0.75613236 1709325
-0.76456821 -1.3428016 0.75613236 1709325
-0.76736242 -1.3428016 0.75613236 1709325
-0.77015662 -1.3428016 0.75613236 1709325
-0.77295083 -1.3428016 0.75613236 1709325
-0.77574503 -1.3428016 0.75613236 1709325
-0.77853924 -1.3428016 0.75613236 1709325
-0.78133345 -1.3428016 0.75613236 1709324
-0.78412765 -1.3428016 0.75613236 1709324
-0.78692192 -1.3428016 0.7561323 1709324
-0.78971612 -1.3428016 0.7561323 1709324
-0.79251033 -1.3428016 0.7561323 1709324
-0.79530454 -1.3428016 0.7561323 1709324
-0.79809874 -1.3428016 0.7561323 1709324
-0.80089295 -1.3428016 0.7561323 1709324
-0.80368716 -1.3428016 0.7561323 1709324
-0.80648136 -1.3428016 0.7561323 1709324
-0.80927557 -1.3428016 0.7561323 1709068
-0.81206977 -1.3428016 0.7561323 1643532
-0.81486398 -1.3428016 0.7561323 1643532
-0.81765819 -1.3428016 0.7561323 1643532
-0.82045239 -1.3428016 0.7561323 1643532
-0.8232466 -1.3428016 0.7561323 1643532
-0.82604086 -1.3428017 0.75613225 1643532
-0.82883507 -1.3428017 0.75613225 1643532
-0.83162928 -1.3428017 0.75613225 1643532
-0.83442348 -1.3428017 0.75613225 1643532
-0.83721763 -1.3428017 0.75613225 1643532
-0.84001184 -1.3428017 0.75613225 1643532
-0.84280604 -1.3428017 0.75613225 1643532
-0.84560025 -1.3428017 0.75613225 1643532
-0.84839445 -1.3428017 0.75613225 1643532
-0.85118866 -1.3428017 0.75613225 1643532
-0.85398287 -1.3428017 0.75613225 1643532
-0.85677707 -1.3428017 0.75613225 1643532
-0.85957128 -1.3428017 0.75613225 1643532
-0.86236548 -1.3428017 0.75613225 1643532
-0.86515975 -1.3428018 0.75613219 1643532
-0.86795396 -1.3428018 0.75613219 1643532
-0.87074816 -1.3428018 0.75613219 1577996
0.91287392 -1.3427972 0.75278449 3418391
0.91007686 -1.3427972 0.75278449 3418391
0.90727973 -1.3427972 0.75278449 3418391
0.90448266 -1.3427972 0.75278449 3418391
0.90168554 -1.3427972 0.75278449 3418391
0.89888847 -1.3427972 0.75278449 3418391
0.89609134 -1.3427972 0.75278449 3418391
0.89329427 -1.3427972 0.75278449 3418391
0.89049721 -1.3427972 0.75278449 3418391
0.88770008 -1.3427972 0.75278449 3418391
0.88490301 -1.3427972 0.75278449 3418391
0.88210595 -1.3427973 0.75278443 3418391
0.87930888 -1.3427973 0.75278443 3352855
0.87651181 -1.3427973 0.75278443 3352599
0.87371469 -1.3427973 0.75278443 3352599
0.87091762 -1.3427973 0.75278443 3352599
0.86812049 -1.3427973 0.75278443 3352599
0.86532342 -1.3427973 0.75278443 3352599
0.86252636 -1.3427973 0.75278443 3352599
0.85972923 -1.3427973 0.75278443 3352599
0.85693216 -1.3427973 0.75278443 3352599
0.85413504 -1.3427973 0.75278443 3352599
0.85133797 -1.3427973 0.75278443 3352599
0.84854084 -1.3427973 0.75278443 3352599
0.84574383 -1.3427973 0.75278437 3352599
0.84294677 -1.3427973 0.75278437 3352599
0.84014964 -1.3427973 0.75278437 3352599
0.83735257 -1.3427973 0.75278437 3352599
0.83455545 -1.3427973 0.75278437 3352599
0.83175838 -1.3427973 0.75278437 3287063
0.82896125 -1.3427973 0.75278437 3287063
0.82616419 -1.3427973 0.75278437 3287063
0.82336712 -1.3427973 0.75278437 3287063
0.82056999 -1.3427973 0.75278437 3287063
0.81777292 -1.3427973 0.75278437 3287063
0.8149758 -1.3427973 0.75278437 3287063
0.81217873 -1.3427973 0.75278437 3286807
0.80938166 -1.3427974 0.75278431 3286807
0.8065846 -1.3427974 0.75278431 3286806
0.80378753 -1.3427974 0.75278431 3286806
0.8009904 -1.3427974 0.75278431 3286806
0.79819334 -1.3427974 0.75278431 3286806
0.79539621 -1.3427974 0.75278431 3286806
0.79259914 -1.3427974 0.75278431 3286806
0.78980201 -1.3427974 0.75278431 3286806
0.78700495 -1.3427974 0.75278431 3286806
0.78420788 -1.3427974 0.75278431 3286806
0.78141075 -1.3427974 0.75278431 3221270
0.77861369 -1.3427974 0.75278431 3221270
0.77581656 -1.3427974 0.75278431 3221270
0.77301955 -1.3427975 0.75278425 3221270
0.77022243 -1.3427975 0.75278425 3221270
0.76742536 -1.3427975 0.75278425 3221270
0.76462823 -1.3427975 0.75278425 3221270
0.76183116 -1.3427975 0.75278425 3221270
0.7590341 -1.3427975 0.75278425 3221270
0.75623697 -1.3427975 0.75278425 3221270
0.7534399 -1.3427975 0.75278425 3221270
0.75064278 -1.3427975 0.75278425 3221270
0.74784571 -1.3427975 0.75278425 3221270
0.74504858 -1.3427975 0.75278425 3221014
0.74225152 -1.3427975 0.75278425 3221014
0.73945445 -1.3427975 0.75278425 3221014
0.73665732 -1.3427975 0.75278425 3221014
0.73386031 -1.3427976 0.75278413 3221014
0.73106319 -1.3427976 0.75278413 3155478
0.72826612 -1.3427976 0.75278413 3155478
0.72546899 -1.3427976 0.75278413 3155478
0.72267193 -1.3427976 0.75278413 3155478
0.7198748 -1.3427976 0.75278413 3155478
0.71707773 -1.3427976 0.75278413 3155478
0.71428066 -1.3427976 0.75278413 3155478
0.71148354 -1.3427976 0.75278413 3155478
0.70868647 -1.3427976 0.75278413 3155478
0.70588934 -1.3427976 0.75278413 3155478
0.70309228 -1.3427976 0.75278413 3155478
0.70029515 -1.3427976 0.75278413 3155478
0.69749814 -1.3427978 0.75278407 3155478
0.69470102 -1.3427978 0.75278407 3155478
0.69190395 -1.3427978 0.75278407 3155478
0.68910682 -1.3427978 0.75278407 3155478
0.68630975 -1.3427978 0.75278407 3155478
0.68351269 -1.3427978 0.75278407 3155478
0.68071556 -1.3427978 0.75278407 3089942
0.67791849 -1.3427978 0.75278407 3089942
0.67512137 -1.3427978 0.75278407 3089686
0.6723243 -1.3427978 0.75278407 3089686
0.66952717 -1.3427978 0.75278407 3089686
0.66673011 -1.3427978 0.75278407 3089686
0.66393298 -1.3427978 0.75278407 3089686
0.66113597 -1.3427979 0.75278401 3089686
0.65833884 -1.3427979 0.75278401 3089686
0.65554178 -1.3427979 0.75278401 3089686
0.65274465 -1.3427979 0.75278401 3089686
0.64994758 -1.3427979 0.75278401 3089685
0.64715052 -1.3427979 0.75278401 3089685
0.64435339 -1.3427979 0.75278401 3089685
0.64155632 -1.3427979 0.75278401 3089685
0.6387592 -1.3427979 0.75278401 3089685
0.63596213 -1.3427979 0.75278401 3089685
0.633165 -1.3427979 0.75278401 3089685
0.63036793 -1.3427979 0.75278401 3024149
0.62757081 -1.3427979 0.75278401 3024149
0.6247738 -1.342798 0.75278401 3024149
0.62197667 -1.342798 0.75278401 3024149
0.61917961 -1.342798 0.75278401 3024149
0.61638248 -1.342798 0.75278401 3024149
0.61358541 -1.342798 0.75278401 3024149
0.61078829 -1.342798 0.75278401 3024149
0.60799122 -1.342798 0.75278401 3023893
0.60519415 -1.342798 0.75278401 3023893
0.60239702 -1.342798 0.75278401 3023893
0.59959996 -1.342798 0.75278401 3023893
0.59680283 -1.342798 0.75278401 3023893
0.59400576 -1.342798 0.75278401 3023893
0.59120864 -1.342798 0.75278401 3023893
0.58841157 -1.342798 0.75278401 3023893
0.5856145 -1.3427981 0.75278395 3023893
0.58281744 -1.3427981 0.75278395 3023893
0.58002031 -1.3427981 0.75278395 2958357
0.57722324 -1.3427981 0.75278395 2958357
0.57442611 -1.3427981 0.75278395 2958357
0.57162905 -1.3427981 0.75278395 2958357
0.56883192 -1.3427981 0.75278395 2958357
0.56603485 -1.3427981 0.75278395 2958357
0.56323779 -1.3427981 0.75278395 2958357
0.56044066 -1.3427981 0.75278395 2958357
0.55764359 -1.3427981 0.75278395 2958357
0.55484647 -1.3427981 0.75278395 2958357
0.5520494 -1.3427981 0.75278395 2958357
0.54925233 -1.3427982 0.75278389 2958357
0.5464552 -1.3427982 0.75278389 2958357
0.54365814 -1.3427982 0.75278389 2958357
0.54086107 -1.3427982 0.75278389 2958357
0.53806394 -1.3427982 0.75278389 2958101
0.53526688 -1.3427982 0.75278389 2958101
0.53246975 -1.3427982 0.75278389 2958101
0.52967268 -1.3427982 0.75278389 2892565
0.52687556 -1.3427982 0.75278389 2892565
0.52407849 -1.3427982 0.75278389 2892565
0.52128136 -1.3427982 0.75278389 2892565
0.51848429 -1.3427982 0.75278389 2892565
0.51568717 -1.3427982 0.75278389 2892565
0.5128901 -1.3427982 0.75278383 2892565
0.51009303 -1.3427982 0.75278383 2892565
0.50729591 -1.3427982 0.75278383 2892565
0.50449884 -1.3427982 0.75278383 2892565
0.50170171 -1.3427982 0.75278383 2892565
0.49890465 -1.3427982 0.75278383 2892565
0.49610758 -1.3427982 0.75278383 2892564
0.49331045 -1.3427982 0.75278383 2892564
0.49051338 -1.3427982 0.75278383 2892564
0.48771626 -1.3427982 0.75278383 2892564
0.48491919 -1.3427982 0.75278383 2892564
0.48212206 -1.3427982 0.75278383 2892564
0.479325 -1.3427982 0.75278383 2892564
0.47652793 -1.3427984 0.75278372 2827028
0.4737308 -1.3427984 0.75278372 2827028
0.47093374 -1.3427984 0.75278372 2826772
0.46813667 -1.3427984 0.75278372 2826772
0.46533954 -1.3427984 0.75278372 2826772
0.46254247 -1.3427984 0.75278372 2826772
0.45974535 -1.3427984 0.75278372 2826772
0.45694828 -1.3427984 0.75278372 2826772
0.45415115 -1.3427984 0.75278372 2826772
0.45135409 -1.3427984 0.75278372 2826772
0.44855696 -1.3427984 0.75278372 2826772
0.44575989 -1.3427984 0.75278372 2826772
0.44296277 -1.3427984 0.75278372 2826772
0.4401657 -1.3427984 0.75278372 2826772
0.43736863 -1.3427985 0.75278366 2826772
0.4345715 -1.3427985 0.75278366 2826772
0.43177444 -1.3427985 0.75278366 2826772
0.42897737 -1.3427985 0.75278366 2826772
0.42618024 -1.3427985 0.75278366 2761236
0.42338318 -1.3427985 0.75278366 2761236
0.42058605 -1.3427985 0.75278366 2761236
0.41778898 -1.3427985 0.75278366 2761236
0.41499186 -1.3427985 0.75278366 2761236
0.41219479 -1.3427985 0.75278366 2761236
0.40939766 -1.3427985 0.75278366 2761236
0.40660059 -1.3427985 0.75278366 2761236
0.40380347 -1.3427985 0.75278366 2761236
0.4010064 -1.3427986 0.7527836 2760980
0.39820933 -1.3427986 0.7527836 2760980
0.39541221 -1.3427986 0.7527836 2760980
0.39261514 -1.3427986 0.7527836 2760980
0.38981801 -1.3427986 0.7527836 2760980
0.38702095 -1.3427986 0.7527836 2760980
0.38422382 -1.3427986 0.7527836 2760980
0.38142675 -1.3427986 0.7527836 2760980
0.37862968 -1.3427986 0.7527836 2760980
0.37583256 -1.3427986 0.7527836 2760980
0.37303549 -1.3427986 0.7527836 2760980
0.37023836 -1.3427986 0.7527836 2695444
0.3674413 -1.3427986 0.7527836 2695444
0.36464423 -1.3427987 0.75278354 2695444
0.3618471 -1.3427987 0.75278354 2695444
0.35905004 -1.3427987 0.75278354 2695444
0.35625291 -1.3427987 0.75278354 2695444
0.35345584 -1.3427987 0.75278354 2695444
0.35065871 -1.3427987 0.75278354 2695444
0.34786165 -1.3427987 0.75278354 2695444
0.34506452 -1.3427987 0.75278354 2695444
0.34226745 -1.3427987 0.75278354 2695443
0.33947033 -1.3427987 0.75278354 2695443
0.33667326 -1.3427987 0.75278354 2695443
0.33387613 -1.3427987 0.75278354 2695443
0.33107907 -1.3427987 0.75278354 2695443
0.328282 -1.3427988 0.75278348 2695443
0.32548487 -1.3427988 0.75278348 2695443
0.3226878 -1.3427988 0.75278348 2695443
0.31989068 -1.3427988 0.75278348 2695187
0.31709361 -1.3427988 0.75278348 2695187
0.31429648 -1.3427988 0.75278348 2695187
0.31149942 -1.3427988 0.75278348 2695187
0.30870229 -1.3427988 0.75278348 2695187
0.30590522 -1.3427988 0.75278348 2629651
0.30310816 -1.3427988 0.75278348 2629651
0.30031103 -1.3427988 0.75278348 2629651
0.29751396 -1.3427988 0.75278348 2629651
0.29471684 -1.3427988 0.75278348 2629651
0.29191977 -1.3427988 0.75278348 2629651
0.28912264 -1.3427989 0.75278342 2629651
0.28632557 -1.3427989 0.75278342 2629651
0.28352845 -1.3427989 0.75278342 2629651
0.28073138 -1.3427989 0.75278342 2629651
0.27793431 -1.3427989 0.75278342 2629651
0.27513719 -1.3427989 0.75278342 2629651
0.27234012 -1.3427989 0.75278342 2629651
0.26954299 -1.3427989 0.75278342 2629651
0.2667459 -1.3427989 0.75278342 2629651
0.2639488 -1.3427989 0.75278342 2629651
0.2611517 -1.3427989 0.75278342 2629651
0.2583546 -1.3427989 0.75278342 2629651
0.25555754 -1.3427989 0.75278342 2629651
0.25276044 -1.3427991 0.7527833 2629651
0.24996334 -1.3427991 0.7527833 2629651
0.24716625 -1.3427991 0.7527833 2629651
0.24436915 -1.3427991 0.7527833 2629651
0.24157205 -1.3427991 0.7527833 2564115
0.23877496 -1.3427991 0.7527833 2564115
0.23597786 -1.3427991 0.7527833 2563859
0.23318076 -1.3427991 0.7527833 2563859
0.23038366 -1.3427991 0.7527833 2563859
0.22758657 -1.3427991 0.7527833 2563859
0.22478947 -1.3427991 0.7527833 2563859
0.22199237 -1.3427991 0.7527833 2563859
0.21919528 -1.3427991 0.7527833 2563859
0.21639819 -1.3427989 0.75278324 2563859
0.21360111 -1.3427989 0.75278324 2563859
0.21080402 -1.3427989 0.75278324 2563859
0.20800692 -1.3427989 0.75278324 2563859
0.20520982 -1.3427989 0.75278324 2563859
0.20241272 -1.3427989 0.75278324 2563859
0.19961563 -1.3427989 0.75278324 2563859
0.19681853 -1.3427989 0.75278324 2563859
0.19402143 -1.3427989 0.75278324 2563859
0.19122434 -1.3427989 0.75278324 2563859
0.18842724 -1.3427989 0.75278324 2563859
0.18563014 -1.3427989 0.75278324 2563859
0.18283305 -1.3427989 0.75278324 2563858
0.18003596 -1.3427991 0.75278318 2563858
0.17723887 -1.3427991 0.75278318 2498322
0.17444177 -1.3427991 0.75278318 2498322
0.17164467 -1.3427991 0.75278318 2498322
0.16884758 -1.3427991 0.75278318 2498322
0.16605048 -1.3427991 0.75278318 2498322
0.16325338 -1.3427991 0.75278318 2498322
0.16045628 -1.3427991 0.75278318 2498322
0.15765919 -1.3427991 0.75278318 2498322
0.15486209 -1.3427991 0.75278318 2498322
0.15206499 -1.3427991 0.75278318 2498066
0.1492679 -1.3427991 0.75278318 2498066
0.1464708 -1.3427991 0.75278318 2498066
0.1436737 -1.3427991 0.75278318 2498066
0.14087662 -1.3427992 0.75278312 2498066
0.13807952 -1.3427992 0.75278312 2498066
0.13528243 -1.3427992 0.75278312 2498066
0.13248533 -1.3427992 0.75278312 2498066
0.12968823 -1.3427992 0.75278312 2498066
0.12689114 -1.3427992 0.75278312 2498066
0.12409403 -1.3427992 0.75278312 2498066
0.12129693 -1.3427992 0.75278312 2498066
0.11849984 -1.3427992 0.75278312 2498066
0.11570275 -1.3427992 0.75278312 2498066
0.11290565 -1.3427992 0.75278312 2498066
0.11010855 -1.3427992 0.75278312 2432530
0.10731146 -1.3427992 0.75278312 2432530
0.10451436 -1.3427993 0.75278306 2432530
0.10171726 -1.3427993 0.75278306 2432530
0.098920166 -1.3427993 0.75278306 2432530
0.09612307 -1.3427993 0.75278306 2432530
0.093325973 -1.3427993 0.75278306 2432530
0.090528876 -1.3427993 0.75278306 2432530
0.087731779 -1.3427993 0.75278306 2432530
0.084934682 -1.3427993 0.75278306 2432530
0.082137585 -1.3427993 0.75278306 2432530
0.079340488 -1.3427993 0.75278306 2432530
0.076543391 -1.3427993 0.75278306 2432530
0.073746294 -1.3427993 0.75278306 2432530
0.070949197 -1.3427993 0.75278306 2432530
0.0681521 -1.3427993 0.75278306 2432530
0.065355003 -1.3427994 0.752783 2432274
0.062557906 -1.3427994 0.752783 2432274
0.059760813 -1.3427994 0.752783 2432274
0.056963716 -1.3427994 0.752783 2432274
0.054166619 -1.3427994 0.752783 2432274
0.051369522 -1.3427994 0.752783 2432274
0.048572425 -1.3427994 0.752783 2432274
0.045775324 -1.3427994 0.752783 2366738
0.042978227 -1.3427994 0.752783 2366738
0.04018113 -1.3427994 0.752783 2366738
0.037384033 -1.3427994 0.752783 2366738
0.034586936 -1.3427994 0.752783 2366738
0.031789839 -1.3427994 0.752783 2366738
0.028992742 -1.3427994 0.752783 2366738
0.026195645 -1.3427995 0.75278288 2366738
0.023398548 -1.3427995 0.75278288 2366737
0.020601451 -1.3427995 0.75278288 2366737
0.017804354 -1.3427995 0.75278288 2366737
0.015007256 -1.3427995 0.75278288 2366737
0.012210159 -1.3427995 0.75278288 2366737
0.0094130607 -1.3427995 0.75278288 2366737
0.0066159638 -1.3427995 0.75278288 2366737
0.0038188659 -1.3427995 0.75278288 2366737
0.0010217689 -1.3427995 0.75278288 2366737
-0.0017753281 -1.3427995 0.75278288 2366737
-0.0045724269 -1.3427995 0.75278288 2366737
-0.0073695239 -1.3427995 0.75278288 2366737
-0.010166623 -1.3427997 0.75278282 2366737
-0.012963723 -1.3427997 0.75278282 2366737
-0.01576082 -1.3427997 0.75278282 2366737
-0.018557917 -1.3427997 0.75278282 2300945
-0.021355014 -1.3427997 0.75278282 2300945
-0.024152111 -1.3427997 0.75278282 2300945
-0.026949212 -1.3427997 0.75278282 2300945
-0.029746309 -1.3427997 0.75278282 2300945
-0.032543406 -1.3427997 0.75278282 2300945
-0.035340503 -1.3427997 0.75278282 2300945
-0.0381376 -1.3427997 0.75278282 2300945
-0.040934697 -1.3427997 0.75278282 2300945
-0.043731794 -1.3427997 0.75278282 2300945
-0.046528891 -1.3427997 0.75278282 2300945
-0.049325995 -1.3427998 0.75278276 2300945
-0.052123092 -1.3427998 0.75278276 2300945
-0.054920197 -1.3427998 0.75278276 2300945
-0.057717294 -1.3427998 0.75278276 2300945
-0.06051439 -1.3427998 0.75278276 2300945
-0.063311487 -1.3427998 0.75278276 2300945
-0.066108584 -1.3427998 0.75278276 2300945
-0.068905681 -1.3427998 0.75278276 2300945
-0.071702778 -1.3427998 0.75278276 2300945
-0.074499875 -1.3427998 0.75278276 2300945
-0.07729698 -1.3427998 0.75278276 2300945
-0.080094077 -1.3427998 0.75278276 2300945
-0.082891174 -1.3427998 0.75278276 2300945
-0.085688271 -1.3427998 0.75278276 2235409
-0.088485375 -1.3427998 0.7527827 2235409
-0.091282472 -1.3427998 0.7527827 2235409
-0.094079576 -1.3427998 0.7527827 2235409
-0.096876673 -1.3427998 0.7527827 2235409
-0.09967377 -1.3427998 0.7527827 2235409
-0.10247087 -1.3427998 0.7527827 2235153
-0.10526797 -1.3427998 0.7527827 2235153
-0.10806507 -1.3427998 0.7527827 2235153
-0.11086217 -1.3427998 0.7527827 2235153
-0.11365926 -1.3427998 0.7527827 2235153
-0.11645636 -1.3427998 0.7527827 2235153
-0.11925346 -1.3427998 0.7527827 2235153
-0.12205055 -1.3427998 0.7527827 2235153
-0.12484767 -1.3427999 0.75278264 2235153
-0.12764476 -1.3427999 0.75278264 2235153
-0.13044186 -1.3427999 0.75278264 2235152
-0.13323896 -1.3427999 0.75278264 2235152
-0.13603605 -1.3427999 0.75278264 2235152
-0.13883315 -1.3427999 0.75278264 2235152
-0.14163025 -1.3427999 0.75278264 2235152
-0.14442736 -1.3427999 0.75278264 2235152
-0.14722446 -1.3427999 0.75278264 2235152
-0.15002155 -1.3427999 0.75278264 2169616
-0.15281865 -1.3427999 0.75278264 2169616
-0.15561575 -1.3427999 0.75278264 2169616
-0.15841284 -1.3427999 0.75278264 2169616
-0.16120994 -1.3427999 0.75278264 2169616
-0.16400705 -1.3428 0.75278258 2169616
-0.16680415 -1.3428 0.75278258 2169616
-0.16960125 -1.3428 0.75278258 2169616
-0.17239836 -1.3428 0.75278258 2169616
-0.17519546 -1.3428 0.75278258 2169616
-0.17799255 -1.3428 0.75278258 2169616
-0.18078965 -1.3428 0.75278258 2169616
-0.18358675 -1.3428 0.75278258 2169616
-0.18638384 -1.3428 0.75278258 2169360
-0.18918094 -1.3428 0.75278258 2169360
-0.19197804 -1.3428 0.75278258 2169360
-0.19477513 -1.3428 0.75278258 2169360
-0.19757223 -1.3428 0.75278258 2169360
-0.20036934 -1.3428 0.75278258 2169360
-0.20316646 -1.3428001 0.75278246 2169360
-0.20596355 -1.3428001 0.75278246 2169360
-0.20876065 -1.3428001 0.75278246 2169360
-0.21155775 -1.3428001 0.75278246 2169360
-0.21435484 -1.3428001 0.75278246 2169360
-0.21715194 -1.3428001 0.75278246 2103824
-0.21994905 -1.3428001 0.75278246 2103824
-0.22274615 -1.3428001 0.75278246 2103824
-0.22554325 -1.3428001 0.75278246 2103824
-0.22834034 -1.3428001 0.75278246 2103824
-0.23113744 -1.3428001 0.75278246 2103824
-0.23393454 -1.3428001 0.75278246 2103824
-0.23673163 -1.3428001 0.75278246 2103824
-0.23952873 -1.3428001 0.75278246 2103824
-0.24232586 -1.3428003 0.7527824 2103824
-0.24512295 -1.3428003 0.7527824 2103824
-0.24792005 -1.3428003 0.7527824 2103824
-0.25071716 -1.3428003 0.7527824 2103824
-0.25351423 -1.3428003 0.7527824 2103824
-0.25631136 -1.3428003 0.7527824 2103824
-0.25910842 -1.3428003 0.7527824 2103824
-0.26190555 -1.3428003 0.7527824 2103824
-0.26470268 -1.3428003 0.7527824 2103824
-0.26749974 -1.3428003 0.7527824 2103824
-0.27029687 -1.3428003 0.7527824 2103824
-0.27309394 -1.3428003 0.7527824 2103568
-0.27589107 -1.3428003 0.7527824 2103568
-0.27868819 -1.3428004 0.7527824 2103568
-0.28148526 -1.3428004 0.7527824 2038032
-0.28428239 -1.3428004 0.7527824 2038031
-0.28707945 -1.3428004 0.7527824 2038031
-0.28987658 -1.3428004 0.7527824 2038031
-0.29267365 -1.3428004 0.7527824 2038031
-0.29547077 -1.3428004 0.7527824 2038031
-0.29826784 -1.3428004 0.7527824 2038031
-0.30106497 -1.3428004 0.7527824 2038031
-0.30386204 -1.3428004 0.7527824 2038031
-0.30665916 -1.3428004 0.7527824 2038031
-0.30945623 -1.3428004 0.7527824 2038031
-0.31225336 -1.3428004 0.7527824 2038031
-0.31505048 -1.3428004 0.7527824 2038031
-0.31784761 -1.3428005 0.75278234 2038031
-0.32064468 -1.3428005 0.75278234 2038031
-0.3234418 -1.3428005 0.75278234 2038031
-0.32623887 -1.3428005 0.75278234 2038031
-0.329036 -1.3428005 0.75278234 2038031
-0.33183306 -1.3428005 0.75278234 2038031
-0.33463019 -1.3428005 0.75278234 2038031
-0.33742726 -1.3428005 0.75278234 2038031
-0.34022439 -1.3428005 0.75278234 2038031
-0.34302145 -1.3428005 0.75278234 2038031
-0.34581858 -1.3428005 0.75278234 2038031
-0.34861565 -1.3428005 0.75278234 1972495
-0.35141277 -1.3428005 0.75278234 1972495
-0.3542099 -1.3428006 0.75278229 1972495
-0.35700703 -1.3428006 0.75278229 1972239
-0.35980409 -1.3428006 0.75278229 1972239
-0.36260122 -1.3428006 0.75278229 1972239
-0.36539829 -1.3428006 0.75278229 1972239
-0.36819541 -1.3428006 0.75278229 1972239
-0.37099248 -1.3428006 0.75278229 1972239
-0.37378961 -1.3428006 0.75278229 1972239
-0.37658668 -1.3428006 0.75278229 1972239
-0.3793838 -1.3428006 0.75278229 1972239
-0.38218093 -1.3428006 0.75278229 1972239
-0.384978 -1.3428006 0.75278229 1972239
-0.38777512 -1.3428006 0.75278229 1972239
-0.39057219 -1.3428006 0.75278229 1972239
-0.39336932 -1.3428006 0.75278223 1972239
-0.39616644 -1.3428006 0.75278223 1972239
-0.39896351 -1.3428006 0.75278223 1972239
-0.40176064 -1.3428006 0.75278223 1972239
-0.4045577 -1.3428006 0.75278223 1972239
-0.40735483 -1.3428006 0.75278223 1972239
-0.41015196 -1.3428006 0.75278223 1972239
-0.41294903 -1.3428006 0.75278223 1906703
-0.41574615 -1.3428006 0.75278223 1906703
-0.41854322 -1.3428006 0.75278223 1906703
-0.42134035 -1.3428006 0.75278223 1906703
-0.42413741 -1.3428006 0.75278223 1906703
-0.42693454 -1.3428006 0.75278223 1906703
