# .PCD v0.7 - Point Cloud Data file format
VERSION 0.7
FIELDS x y z rgb
SIZE 4 4 4 4
TYPE F F F U
COUNT 1 1 1 1
WIDTH 1126
HEIGHT 1
VIEWPOINT 0 0 0 1 0 0 0
POINTS 1126
DATA ascii
-0.22841091 -1.7006249 0.80707443 15198183
-0.23158731 -1.6997122 0.80752397 15198183
-0.23476018 -1.6988003 0.80797303 15198183
-0.23792954 -1.6978896 0.80842155 15198183
-0.24103244 -1.6965854 0.80906385 16316664
-0.2440878 -1.6950201 0.80983478 16316664
-0.24713738 -1.6934576 0.81060433 16316664
-0.2501812 -1.6918983 0.81137216 16316664
-0.25321925 -1.6903422 0.81213862 16316664
-0.25624889 -1.6887729 0.81291145 16119285
-0.25924236 -1.6870303 0.8137697 16777215
-0.26212823 -1.6847088 0.81491303 16777215
-0.26500589 -1.6823936 0.81605321 16777215
-0.26786953 -1.6800518 0.8172065 16777215
-0.27072501 -1.6777169 0.81835657 16777215
-0.27357215 -1.675388 0.81950355 16777215
-0.27640748 -1.6730455 0.82065713 16777215
-0.27906346 -1.6697887 0.8222611 16777215
-0.28169227 -1.6664572 0.82390189 16777215
-0.28433138 -1.6632503 0.82548124 16777215
-0.28708404 -1.6607026 0.82673603 16777215
-0.29011118 -1.6596228 0.82726783 16777215
-0.10544351 -1.6541469 0.82637137 16777215
-0.10864501 -1.653841 0.82652271 12369084
-0.11217695 -1.6575089 0.8247081 8750469
-0.11580369 -1.662113 0.82243037 8158332
-0.11944878 -1.666715 0.82015347 8158332
-0.12310687 -1.6712557 0.81790709 8421504
-0.12664703 -1.6743078 0.81639701 8816262
-0.13018008 -1.677153 0.81498951 9145227
-0.13372427 -1.6799948 0.81358343 9145227
-0.1372804 -1.6828419 0.81217492 9342606
-0.14084467 -1.6856557 0.81078285 9342606
-0.14432658 -1.6875472 0.80984712 10132122
-0.14780448 -1.6893266 0.80896676 10132122
-0.15128802 -1.6910914 0.80809361 10395294
-0.15477808 -1.6928509 0.80722308 10395294
-0.15827584 -1.6946162 0.80634975 10395294
-0.16174002 -1.6960169 0.80565679 11382189
-0.16516182 -1.6969953 0.8051728 11382189
-0.16858648 -1.6979642 0.8046934 11579568
-0.17201491 -1.6989321 0.80421454 11579568
-0.17544736 -1.699901 0.80373514 11579568
-0.17888385 -1.7008712 0.80325526 11579568
-0.18225819 -1.7013072 0.80303949 12763842
-0.18561819 -1.7016153 0.80288708 12763842
-0.18897943 -1.7019235 0.80273461 12763842
-0.19234194 -1.7022318 0.80258203 12763842
-0.19570576 -1.7025405 0.80242926 12763842
-0.19907087 -1.7028499 0.80227625 12763842
-0.20235501 -1.7025535 0.80242294 14079702
-0.20563722 -1.7022518 0.80257219 14079702
-0.20891824 -1.7019502 0.80272138 14079702
-0.21219802 -1.7016485 0.80287069 14079702
-0.2154765 -1.7013462 0.80302024 14079702
-0.21875116 -1.701026 0.80317861 15329769
-0.22193867 -1.700125 0.80362445 15329769
-0.22512273 -1.6992252 0.80406952 15329769
-0.22830354 -1.6983277 0.80451357 15329769
-0.23148088 -1.6974313 0.80495709 15329769
-0.23465355 -1.696528 0.80540395 15198183
-0.2378218 -1.6956197 0.80585331 15198183
-0.24089162 -1.6941186 0.80659598 16448250
-0.24394803 -1.6925719 0.80736113 16448250
-0.2469994 -1.6910326 0.80812269 16448250
-0.25004417 -1.6894907 0.80888546 16316664
-0.25308079 -1.6879375 0.809654 16316664
-0.25611174 -1.6863873 0.81042087 16316664
-0.25904578 -1.6843103 0.81144845 16777215
-0.26193458 -1.6820209 0.81258112 16777215
-0.26481068 -1.6797116 0.81372356 16777215
-0.26767856 -1.6774086 0.81486297 16777215
-0.27053833 -1.675112 0.81599921 16777215
-0.27338433 -1.6727903 0.81714785 16777215
-0.27612537 -1.6699491 0.81855351 16777215
-0.27877128 -1.666658 0.82018167 16777215
-0.28139889 -1.6633399 0.8218233 16777215
-0.2840156 -1.6600349 0.82345837 16777215
-0.28662175 -1.656744 0.82508653 16777215
-0.28932893 -1.6540419 0.82642335 16777215
-0.29221165 -1.6522902 0.82729 16777215
-0.10484621 -1.6450891 0.82727271 16777215
-0.10828228 -1.647846 0.82590264 10461087
-0.1120002 -1.6538432 0.82292217 8158332
-0.11561887 -1.6583982 0.82065833 8158332
-0.11925279 -1.662918 0.81841213 8421504
-0.12290414 -1.6674294 0.8161701 8421504
-0.12652363 -1.6713946 0.81419945 9145227
-0.13005234 -1.6742195 0.81279552 9145227
-0.13359019 -1.677021 0.81140316 9342606
-0.13713875 -1.6798167 0.81001377 9342606
-0.14069963 -1.6826231 0.80861914 9671571
-0.14422715 -1.6849902 0.80744272 10395294
-0.14769998 -1.6867379 0.80657417 10395294
-0.15118039 -1.6884906 0.80570304 10395294
-0.1546675 -1.69024 0.80483359 10592673
-0.15815987 -1.6919733 0.80397224 10592673
-0.16165119 -1.6936347 0.80314654 11579568
-0.16506988 -1.6945988 0.80266744 11579568
-0.16849259 -1.695564 0.80218774 11579568
-0.17191932 -1.6965303 0.80170745 11579568
-0.17534883 -1.6974876 0.8012318 11842740
-0.17878196 -1.6984426 0.80075705 11842740
-0.18217017 -1.6990041 0.8004781 12961221
-0.18552813 -1.6993071 0.80032748 12961221
-0.18888734 -1.6996102 0.80017686 12961221
-0.19224781 -1.6999136 0.80002606 12961221
-0.1956095 -1.7002171 0.7998752 12961221
-0.19897243 -1.7005208 0.79972434 12961221
-0.2022581 -1.7002468 0.79986042 14211288
-0.20553944 -1.6999496 0.80000824 14211288
-0.2088196 -1.6996523 0.80015588 14211288
-0.21209857 -1.6993552 0.80030358 14211288
-0.21537636 -1.6990583 0.80045122 14211288
-0.21863727 -1.6986536 0.80065227 15527148
-0.22182509 -1.6977663 0.80109322 15527148
-0.22500955 -1.6968802 0.80153364 15527148
-0.22818898 -1.6959845 0.80197877 15329769
-0.23136465 -1.695088 0.80242419 15329769
-0.23453711 -1.6941941 0.8028686 15329769
-0.2376806 -1.6931393 0.80339277 16579836
-0.24074508 -1.6916177 0.80414897 16579836
-0.24380367 -1.6900973 0.80490458 16579836
-0.24685369 -1.6885623 0.80566746 16448250
-0.24989735 -1.6870259 0.806431 16448250
-0.25293589 -1.6854961 0.80719131 16448250
-0.25594217 -1.6838129 0.8080278 16777215
-0.25884187 -1.6815495 0.80915266 16777215
-0.26173025 -1.6792738 0.81028354 16777215
-0.26461059 -1.6770042 0.81141156 16777215
-0.26748168 -1.6747342 0.8125397 16777215
-0.27033985 -1.6724432 0.81367826 16777215
-0.27315944 -1.6699914 0.81489682 16777215
-0.27582371 -1.6667494 0.816508 16777215
-0.2784695 -1.6634786 0.81813353 16777215
-0.28110456 -1.6602207 0.81975263 16777215
-0.28372008 -1.656929 0.8213886 16777215
-0.28632432 -1.6536477 0.82301933 16777215
-0.28878397 -1.64969 0.82498616 16777215
-0.29131162 -1.64616 0.82674056 16777215
-0.10439791 -1.6379175 0.82726622 16316664
-0.10789098 -1.6415091 0.82547325 10461087
-0.11175087 -1.6493138 0.82157683 8026746
-0.11543083 -1.6546502 0.81891274 8421504
-0.11905642 -1.6591212 0.81668073 8421504
-0.122695 -1.6635361 0.81447673 8684676
-0.12635049 -1.6679413 0.81227744 8947848
-0.12991914 -1.6712303 0.81063551 9342606
-0.13345212 -1.674008 0.80924875 9342606
-0.13699475 -1.6767702 0.80786979 9671571
-0.14054687 -1.6795158 0.80649912 9671571
-0.14411066 -1.6822673 0.80512553 9671571
-0.14759193 -1.684117 0.8042022 10592673
-0.15106718 -1.6858391 0.8033424 10592673
-0.15454972 -1.6875644 0.80248106 10592673
-0.15803958 -1.6892933 0.80161792 10592673
-0.16153398 -1.6910003 0.80076581 10855845
-0.16497302 -1.6921607 0.80018646 11842740
-0.16839232 -1.6931103 0.79971236 11842740
-0.17181557 -1.6940612 0.79923773 11842740
-0.1752428 -1.695013 0.7987625 11842740
-0.17867398 -1.695966 0.79828674 11842740
-0.18207651 -1.6966567 0.79794192 13158600
-0.18543246 -1.6969556 0.79779273 13158600
-0.18878964 -1.6972544 0.79764354 13158600
-0.19214803 -1.6975535 0.79749423 13158600
-0.19550765 -1.6978527 0.79734486 13158600
-0.19886847 -1.6981519 0.79719549 13158600
-0.20215569 -1.6979011 0.79732066 14408667
-0.20543602 -1.6976079 0.79746711 14408667
-0.20871519 -1.6973145 0.7976135 14408667
-0.21199317 -1.6970214 0.79775989 14408667
-0.21526998 -1.6967282 0.79790628 14408667
-0.21851704 -1.6962395 0.79815018 15658734
-0.22170348 -1.6953548 0.79859185 15527148
-0.22488636 -1.6944702 0.79903352 15527148
-0.2280658 -1.6935862 0.79947484 15527148
-0.2312419 -1.6927038 0.79991531 15527148
-0.23441456 -1.6918224 0.80035537 15527148
-0.23752563 -1.6905738 0.80097866 16777215
-0.24059115 -1.6890724 0.80172825 16579836
-0.24364834 -1.6875567 0.80248487 16579836
-0.24669977 -1.6860436 0.8032403 16579836
-0.24974535 -1.6845318 0.80399507 16579836
-0.25278533 -1.6830227 0.80474842 16579836
-0.25572902 -1.6809839 0.80576622 16777215
-0.2586295 -1.6787422 0.80688536 16777215
-0.26152164 -1.6765044 0.80800259 16777215
-0.26440334 -1.6742588 0.80912364 16777215
-0.2672739 -1.672001 0.81025076 16777215
-0.27013642 -1.6697493 0.8113749 16777215
-0.272847 -1.6667142 0.81289005 16777215
-0.27551204 -1.6634986 0.81449533 16777215
-0.27816617 -1.6602942 0.81609517 16777215
-0.28079933 -1.6570466 0.81771648 16777215
-0.28342187 -1.6538122 0.81933117 16777215
-0.28596902 -1.6502535 0.82110775 16777215
-0.28827393 -1.6455234 0.82346916 16777215
-0.29060727 -1.6410347 0.82571006 16777215
-0.29325652 -1.6382285 0.82711101 16777215
-0.10397406 -1.6310637 0.82712573 15856113
-0.10751787 -1.6354043 0.82494897 8618883
-0.11137676 -1.6432996 0.82098967 8026746
-0.11524069 -1.6508821 0.81718713 8421504
-0.11885594 -1.6552818 0.81498075 8684676
-0.12248607 -1.6596496 0.81279045 8684676
-0.12612835 -1.6639577 0.81063002 8947848
-0.12978406 -1.6682239 0.80849063 9671571
-0.13330925 -1.670948 0.8071245 9671571
-0.13684604 -1.6736784 0.80575526 9671571
-0.14039171 -1.6763875 0.80439663 9868950
-0.14394678 -1.6790816 0.80304563 9868950
-0.14747922 -1.6814531 0.80185634 10592673
-0.15095006 -1.6831527 0.80100405 10855845
-0.1544273 -1.6848481 0.80015385 10855845
-0.15791175 -1.6865467 0.7993021 10855845
-0.16140343 -1.6882486 0.79844844 10855845
-0.16487162 -1.6896844 0.79772854 12040119
-0.16828758 -1.6906198 0.79725945 12040119
-0.17170744 -1.6915565 0.79678977 12040119
-0.17513114 -1.6924934 0.79631984 12040119
-0.17855868 -1.6934309 0.79584968 12040119
-0.18197627 -1.6942577 0.79543501 13158600
-0.18533054 -1.6945559 0.79528552 13158600
-0.18868603 -1.6948541 0.79513603 13158600
-0.19204274 -1.6951524 0.79498637 13158600
-0.19539776 -1.695429 0.79484773 16777215
-0.19871673 -1.6954284 0.79484797 16777215
-0.20203571 -1.6954279 0.79484826 16777215
-0.20532683 -1.6952257 0.79494965 14408667
-0.20860448 -1.6949334 0.79509628 14408667
-0.21188097 -1.6946411 0.79524279 14408667
-0.21515627 -1.6943488 0.79538941 14408667
-0.21838847 -1.6937699 0.79567975 15658734
-0.22157478 -1.6928972 0.79611737 15658734
-0.22475772 -1.6920254 0.79655457 15658734
-0.22793712 -1.6911535 0.79699183 15658734
-0.23111312 -1.6902823 0.79742867 15658734
-0.23428576 -1.6894121 0.79786503 15658734
-0.23736306 -1.6879621 0.79859227 16777215
-0.24042751 -1.6864684 0.79934126 16777215
-0.24348636 -1.6849773 0.80008906 16777215
-0.24653949 -1.6834878 0.80083597 16777215
-0.24958704 -1.6820011 0.8015815 16777215
-0.25259638 -1.6803234 0.80242294 16777215
-0.25550824 -1.6781132 0.80353129 16777215
-0.25841236 -1.6759096 0.8046363 16777215
-0.26130527 -1.6736932 0.80574787 16777215
-0.26418763 -1.6714673 0.80686408 16777215
-0.26706183 -1.669246 0.80797797 16777215
-0.26984227 -1.6665552 0.80932748 16777215
-0.2725262 -1.663395 0.81091219 16777215
-0.27519846 -1.6602408 0.81249398 16777215
-0.27785051 -1.6570464 0.81409585 16777215
-0.28049213 -1.6538652 0.81569117 16777215
-0.28311509 -1.6506531 0.81730199 16777215
-0.28545481 -1.6460382 0.81961632 16777215
-0.28775913 -1.6413369 0.82197386 16777215
-0.29004425 -1.6366348 0.82433194 16777215
-0.29245412 -1.6326556 0.82632744 16777215
-0.29526544 -1.6307569 0.82727957 16777215
-0.10350209 -1.6236172 0.82730782 16777215
-0.10715406 -1.6294221 0.82438368 7763574
-0.1110049 -1.637321 0.82040471 8026746
-0.11486913 -1.645004 0.8165344 8289918
-0.11865355 -1.6514251 0.81329989 8684676
-0.12227267 -1.6557178 0.81113738 8947848
-0.1259072 -1.6599897 0.80898553 8947848
-0.12955298 -1.6641976 0.80686587 9211020
-0.13316429 -1.667869 0.80501646 9868950
-0.13669217 -1.670537 0.80367249 9868950
-0.14023174 -1.6732142 0.80232394 9868950
-0.14378059 -1.6758763 0.80098289 10197915
-0.1473386 -1.6785231 0.7996496 10197915
-0.15082756 -1.6804177 0.79869515 10855845
-0.15430103 -1.682098 0.79784876 11119017
-0.15777992 -1.683766 0.79700851 11119017
-0.16126606 -1.6854385 0.796166 11119017
-0.16475938 -1.687115 0.79532152 11119017
-0.16817519 -1.6880653 0.79484284 16777215
-0.17148241 -1.6880639 0.79484349 16777215
-0.17478964 -1.6880624 0.79484421 16777215
-0.17809685 -1.688061 0.79484499 16777215
-0.18140407 -1.6880596 0.79484564 16777215
-0.18471134 -1.6880587 0.79484612 16777215
-0.18801865 -1.6880583 0.79484636 16777215
-0.19132596 -1.6880577 0.79484665 16777215
-0.19463328 -1.6880572 0.79484689 16777215
-0.19794056 -1.6880565 0.79484719 16777215
-0.20124792 -1.6880562 0.79484731 16777215
-0.20455523 -1.6880558 0.79484755 16777215
-0.20786254 -1.6880554 0.79484779 16777215
-0.21116985 -1.6880549 0.79484802 16777215
-0.21447717 -1.6880546 0.79484814 16777215
-0.21778443 -1.6880538 0.79484856 16777215
-0.2210919 -1.6880544 0.7948482 16777215
-0.22439937 -1.688055 0.79484797 16777215
-0.22770682 -1.6880556 0.79484767 16777215
-0.2309785 -1.6878245 0.79496413 15658734
-0.2341222 -1.6867815 0.79548949 16777215
-0.23719294 -1.6853048 0.79623336 16777215
-0.24025826 -1.6838313 0.79697561 16777215
-0.24331848 -1.6823632 0.79771513 16777215
-0.24637209 -1.6808908 0.79845685 16777215
-0.24941795 -1.6794078 0.79920387 16777215
-0.25236732 -1.6773878 0.80022144 16777215
-0.255283 -1.6752185 0.80131423 16777215
-0.25818652 -1.6730292 0.80241704 16777215
-0.26108074 -1.6708372 0.80352128 16777215
-0.26396722 -1.6686516 0.80462217 16777215
-0.26681137 -1.6662785 0.80581766 16777215
-0.26951319 -1.6631707 0.80738312 16777215
-0.27220273 -1.6600647 0.80894774 16777215
-0.27487355 -1.656925 0.81052935 16777215
-0.27753419 -1.6537986 0.81210428 16777215
-0.28017503 -1.6506345 0.81369817 16777215
-0.28259766 -1.6463934 0.81583452 16777215
-0.28493237 -1.6417854 0.81815571 16777215
-0.28724635 -1.6371665 0.82048255 16777215
-0.28953278 -1.6325023 0.82283205 16777215
-0.29179192 -1.6277955 0.82520306 16777215
-0.29419637 -1.6239066 0.82716203 16777215
-0.1031421 -1.6175843 0.82680136 15066597
-0.1063848 -1.618495 0.8263405 12500670
-0.11063507 -1.631375 0.81982332 8289918
-0.11448286 -1.6389631 0.81598371 8618883
-0.11834221 -1.6463335 0.81225431 8816262
-0.1220585 -1.6517822 0.80949724 8947848
-0.12568137 -1.6559755 0.80737537 9211020
-0.12931888 -1.6601441 0.80526608 9211020
-0.13296667 -1.6642444 0.8031913 9474192
-0.13653624 -1.6673775 0.801606 9868950
-0.14006694 -1.6699955 0.80028129 10197915
-0.14360933 -1.6726245 0.79895103 10197915
-0.14716139 -1.6752441 0.79762542 10395294
-0.1506993 -1.6776307 0.79641789 11119017
-0.15416835 -1.6792911 0.7955777 11119017
-0.15762107 -1.6807424 0.79484332 16777215
-0.16091703 -1.6807439 0.7948426 16777215
-0.164213 -1.6807454 0.79484183 16777215
-0.16750883 -1.6807455 0.79484177 16777215
-0.17080447 -1.6807441 0.79484248 16777215
-0.17410009 -1.6807425 0.79484326 16777215
-0.17739572 -1.6807412 0.79484397 16777215
-0.18069135 -1.6807398 0.79484463 16777215
-0.18398698 -1.6807386 0.79484534 16777215
-0.1872827 -1.680738 0.79484558 16777215
-0.19057842 -1.6807375 0.79484582 16777215
-0.19387414 -1.680737 0.79484612 16777215
-0.19716984 -1.6807362 0.79484642 16777215
-0.20046562 -1.6807361 0.79484648 16777215
-0.20376135 -1.6807358 0.79484665 16777215
-0.20705709 -1.6807353 0.79484689 16777215
-0.21035281 -1.680735 0.79484707 16777215
-0.21364853 -1.6807345 0.79484725 16777215
-0.21694422 -1.6807339 0.79484761 16777215
-0.22023991 -1.6807333 0.79484797 16777215
-0.22353579 -1.6807339 0.79484761 16777215
-0.22683164 -1.6807344 0.79484731 16777215
-0.23012753 -1.6807351 0.79484701 16777215
-0.23342343 -1.6807358 0.79484665 16777215
-0.23671885 -1.6807334 0.79484785 16777215
-0.24001418 -1.6807308 0.79484928 16777215
-0.24314298 -1.6797043 0.79536861 16777215
-0.24619566 -1.678241 0.79610902 16777215
-0.24920677 -1.6765641 0.79695761 16777215
-0.25213349 -1.6744272 0.79803884 16777215
-0.25504762 -1.6722671 0.79913187 16777215
-0.25795341 -1.6701092 0.80022377 16777215
-0.26085168 -1.6679579 0.80131233 16777215
-0.26373768 -1.6657866 0.80241096 16777215
-0.26647305 -1.6628226 0.80391073 16777215
-0.26918018 -1.6597682 0.80545628 16777215
-0.27186966 -1.656685 0.80701637 16777215
-0.27454841 -1.6536113 0.8085717 16777215
-0.27720714 -1.6504967 0.81014758 16777215
-0.27970165 -1.6465797 0.81212968 16777215
-0.28206664 -1.6420676 0.81441277 16777215
-0.28441101 -1.6375434 0.81670207 16777215
-0.2867285 -1.6329746 0.81901383 16777215
-0.28901958 -1.628366 0.82134581 16777215
-0.29075402 -1.6210545 0.82504541 16777215
-0.2931115 -1.6169883 0.82710296 16777215
-0.10580091 -1.6098489 0.82718068 15987699
-0.10987194 -1.6207528 0.82163858 8355711
-0.11409564 -1.6329197 0.81545466 8618883
-0.11793895 -1.6402043 0.81175208 8816262
-0.12179334 -1.6472846 0.80815333 9145227
-0.12545361 -1.6519449 0.8057847 9211020
-0.12907875 -1.6560313 0.80370772 9474192
-0.13271952 -1.6601082 0.80163562 9474192
-0.13636811 -1.6640967 0.79960829 9737364
-0.13989981 -1.6667567 0.79825628 10197915
-0.143434 -1.669336 0.79694539 10395294
-0.14697878 -1.6719166 0.79563373 10395294
-0.15042499 -1.6734707 0.79484379 16777215
-0.15370929 -1.673471 0.79484367 16777215
-0.15699373 -1.6734724 0.79484302 16777215
-0.16027817 -1.6734737 0.79484236 16777215
-0.16356263 -1.6734751 0.79484159 16777215
-0.16684709 -1.6734766 0.79484087 16777215
-0.17013124 -1.6734753 0.79484147 16777215
-0.17341536 -1.673474 0.79484224 16777215
-0.17669947 -1.6734725 0.79484296 16777215
-0.1799836 -1.6734711 0.79484361 16777215
-0.18326771 -1.6734697 0.79484439 16777215
-0.18655188 -1.6734688 0.79484481 16777215
-0.1898361 -1.6734682 0.79484504 16777215
-0.1931203 -1.6734678 0.79484534 16777215
-0.19640452 -1.6734673 0.79484558 16777215
-0.19968873 -1.6734668 0.79484582 16777215
-0.20297304 -1.673467 0.7948457 16777215
-0.20625725 -1.6734666 0.79484594 16777215
-0.20954147 -1.6734662 0.79484618 16777215
-0.21282569 -1.6734657 0.79484636 16777215
-0.2161099 -1.6734654 0.79484653 16777215
-0.21939386 -1.6734631 0.79484761 16777215
-0.22267823 -1.6734639 0.79484737 16777215
-0.22596259 -1.6734645 0.79484701 16777215
-0.22924696 -1.6734651 0.79484665 16777215
-0.23253135 -1.6734657 0.79484636 16777215
-0.2358156 -1.6734657 0.79484642 16777215
-0.23909943 -1.6734629 0.79484779 16777215
-0.24238326 -1.6734601 0.79484922 16777215
-0.24566706 -1.6734574 0.79485059 16777215
-0.24895124 -1.673457 0.79485083 16777215
-0.25189006 -1.6714121 0.79589015 16777215
-0.25480688 -1.6692867 0.79697043 16777215
-0.25771564 -1.6671646 0.79804909 16777215
-0.26061225 -1.665022 0.79913801 16777215
-0.26340628 -1.662349 0.80049658 16777215
-0.2661311 -1.6593498 0.80202103 16777215
-0.26883769 -1.6563168 0.80356264 16777215
-0.2715342 -1.653296 0.80509794 16777215
-0.27421099 -1.6502346 0.80665398 16777215
-0.27676761 -1.646597 0.80850285 16777215
-0.27916229 -1.6421815 0.81074709 16777215
-0.281537 -1.6377548 0.81299704 16777215
-0.28388464 -1.6332805 0.81527114 16777215
-0.28620613 -1.6287652 0.81756616 16777215
-0.28804189 -1.6218797 0.82106584 16777215
-0.28973633 -1.6144249 0.82485479 16777215
-0.29203558 -1.6101248 0.82704043 16777215
-0.10536388 -1.603007 0.82713211 16777215
-0.10872485 -1.6055795 0.82581872 10658466
-0.11355928 -1.625152 0.8158263 8882055
-0.11753799 -1.6341101 0.81125283 8816262
-0.12137617 -1.641106 0.80768108 9145227
-0.12522258 -1.6478837 0.80422091 9408399
-0.12883902 -1.6519275 0.80215627 9474192
-0.13246569 -1.6559076 0.80012435 9737364
-0.1361073 -1.6598758 0.79809844 10000536
-0.13972645 -1.6634593 0.79626894 10395294
-0.14325607 -1.6660254 0.79495883 10395294
-0.14655246 -1.6662556 0.79484135 16777215
-0.14982507 -1.6662532 0.79484254 16777215
-0.15309775 -1.6662514 0.79484349 16777215
-0.15637074 -1.6662529 0.79484272 16777215
-0.15964377 -1.6662542 0.79484206 16777215
-0.16291678 -1.6662556 0.79484135 16777215
-0.16618982 -1.666257 0.79484057 16777215
-0.1694627 -1.6662571 0.79484051 16777215
-0.17273539 -1.6662557 0.79484123 16777215
-0.17600809 -1.6662544 0.79484195 16777215
-0.17928079 -1.6662531 0.7948426 16777215
-0.18255347 -1.6662517 0.79484338 16777215
-0.18582615 -1.6662503 0.79484397 16777215
-0.18909894 -1.6662498 0.79484427 16777215
-0.19237173 -1.6662493 0.79484457 16777215
-0.1956445 -1.6662488 0.79484475 16777215
-0.19891727 -1.6662481 0.7948451 16777215
-0.20219016 -1.6662484 0.79484493 16777215
-0.20546298 -1.6662482 0.79484504 16777215
-0.20873576 -1.6662478 0.79484528 16777215
-0.21200855 -1.6662474 0.79484552 16777215
-0.21528134 -1.666247 0.79484576 16777215
-0.21855396 -1.6662455 0.79484648 16777215
-0.22182664 -1.6662445 0.79484701 16777215
-0.22509958 -1.6662451 0.79484671 16777215
-0.22837253 -1.6662457 0.79484636 16777215
-0.23164545 -1.6662463 0.79484606 16777215
-0.23491846 -1.6662472 0.79484558 16777215
-0.23819102 -1.6662455 0.79484648 16777215
-0.24146344 -1.6662427 0.79484785 16777215
-0.24473582 -1.6662401 0.79484922 16777215
-0.24800818 -1.6662374 0.79485065 16777215
-0.25128132 -1.666239 0.79484981 16777215
-0.25455451 -1.6662413 0.79484862 16777215
-0.25746852 -1.6641688 0.79590672 16777215
-0.26031357 -1.6617506 0.79714131 16777215
-0.26305497 -1.6588024 0.79864645 16777215
-0.26577985 -1.655829 0.80016452 16777215
-0.26849437 -1.6528646 0.80167794 16777215
-0.2711882 -1.6498528 0.8032155 16777215
-0.27379435 -1.6464337 0.80496109 16777215
-0.27622139 -1.6421325 0.80715704 16777215
-0.2786268 -1.6378088 0.80936444 16777215
-0.28100276 -1.633423 0.81160361 16777215
-0.2833541 -1.6290016 0.81386083 16777215
-0.28528041 -1.6224965 0.81718194 16777215
-0.28703523 -1.6152565 0.82087821 16777215
-0.28873128 -1.6078688 0.82464999 16777215
-0.2909618 -1.6032823 0.8269915 16777215
-0.10538226 -1.6017232 0.82425749 6842472
-0.10807285 -1.5963181 0.82702923 16645629
-0.11235109 -1.6095977 0.82021928 8355711
-0.11713457 -1.6279969 0.81078398 9079434
-0.1209615 -1.6349641 0.8072111 9145227
-0.12479249 -1.6416689 0.80377281 9408399
-0.12859549 -1.6477885 0.80063456 9737364
-0.13221318 -1.6517259 0.79861546 9737364
-0.13584077 -1.6556016 0.796628 10000536
-0.13944523 -1.65909 0.79483902 16777215
-0.14270677 -1.6590903 0.79483891 16777215
-0.14596805 -1.659088 0.7948401 16777215
-0.14922932 -1.6590855 0.79484129 16777215
-0.15249056 -1.659083 0.7948426 16777215
-0.15575209 -1.6590834 0.79484242 16777215
-0.15901375 -1.6590847 0.79484177 16777215
-0.16227542 -1.6590862 0.79484105 16777215
-0.16553709 -1.6590875 0.79484034 16777215
-0.1687988 -1.6590891 0.79483956 16777215
-0.17206015 -1.6590878 0.79484022 16777215
-0.17532149 -1.6590863 0.79484093 16777215
-0.17858283 -1.6590849 0.79484165 16777215
-0.18184417 -1.6590836 0.7948423 16777215
-0.1851055 -1.6590822 0.79484308 16777215
-0.18836689 -1.6590813 0.79484349 16777215
-0.19162832 -1.6590809 0.79484373 16777215
-0.19488975 -1.6590803 0.79484403 16777215
-0.19815119 -1.6590798 0.79484433 16777215
-0.20141269 -1.6590799 0.79484427 16777215
-0.20467423 -1.6590801 0.79484415 16777215
-0.20793566 -1.6590797 0.79484439 16777215
-0.21119709 -1.6590793 0.79484463 16777215
-0.21445854 -1.6590788 0.79484481 16777215
-0.21771987 -1.6590778 0.79484534 16777215
-0.220981 -1.6590753 0.79484659 16777215
-0.22424255 -1.6590757 0.79484636 16777215
-0.22750415 -1.6590763 0.79484606 16777215
-0.23076572 -1.6590768 0.79484582 16777215
-0.23402734 -1.6590778 0.79484534 16777215
-0.23728891 -1.6590782 0.7948451 16777215
-0.24054997 -1.6590755 0.79484648 16777215
-0.243811 -1.6590728 0.79484791 16777215
-0.24707206 -1.6590701 0.79484928 16777215
-0.25033331 -1.6590691 0.79484987 16777215
-0.25359517 -1.6590712 0.79484874 16777215
-0.25685704 -1.6590734 0.79484755 16777215
-0.25995541 -1.6581429 0.79532474 16777215
-0.26269644 -1.6552191 0.7968241 16777215
-0.26542741 -1.6523054 0.79831833 16777215
-0.26813942 -1.6493521 0.79983282 16777215
-0.27078825 -1.6461196 0.80149043 16777215
-0.27324283 -1.6419104 0.80364895 16777215
-0.2756775 -1.6376859 0.80581534 16777215
-0.27808726 -1.6334206 0.80800265 16777215
-0.28046745 -1.6290909 0.81022298 16777215
-0.2824567 -1.6228324 0.81343246 16777215
-0.28428072 -1.615859 0.81700844 16777215
-0.28603518 -1.6086768 0.82069159 16777215
-0.2871176 -1.5982742 0.82602614 16777215
-0.28981239 -1.5960752 0.82715386 16777215
-0.10812837 -1.5954751 0.82393897 6842472
-0.11076444 -1.5896817 0.82692301 16645629
-0.11598705 -1.6134614 0.81467426 8882055
-0.12054977 -1.6288636 0.80674076 9145227
-0.12436458 -1.6354871 0.80332905 9408399
-0.12818883 -1.6419258 0.80001253 9671571
-0.13195637 -1.6475047 0.79713887 10000536
-0.13557553 -1.6513457 0.79516035 10000536
-0.13888712 -1.6519693 0.79483926 16777215
-0.14213768 -1.6519722 0.79483771 16777215
-0.14538768 -1.6519699 0.79483891 16777215
-0.14863768 -1.6519675 0.7948401 16777215
-0.15188766 -1.6519651 0.79484135 16777215
-0.15513772 -1.6519635 0.79484218 16777215
-0.15838809 -1.6519648 0.79484153 16777215
-0.16163848 -1.6519662 0.79484081 16777215
-0.16488889 -1.6519675 0.7948401 16777215
-0.16813931 -1.6519692 0.79483926 16777215
-0.17138956 -1.6519693 0.79483926 16777215
-0.17463964 -1.6519679 0.79483992 16777215
-0.17788972 -1.6519666 0.79484063 16777215
-0.18113978 -1.6519651 0.79484135 16777215
-0.18438984 -1.6519637 0.79484206 16777215
-0.18763991 -1.6519624 0.79484272 16777215
-0.19089007 -1.6519619 0.79484302 16777215
-0.19414023 -1.6519614 0.79484326 16777215
-0.19739038 -1.6519608 0.79484355 16777215
-0.2006406 -1.6519607 0.79484355 16777215
-0.20389087 -1.6519611 0.79484344 16777215
-0.20714109 -1.651961 0.79484349 16777215
-0.21039125 -1.6519606 0.79484367 16777215
-0.21364142 -1.6519601 0.79484391 16777215
-0.21689156 -1.6519597 0.79484421 16777215
-0.22014143 -1.6519572 0.79484546 16777215
-0.22339144 -1.6519558 0.79484612 16777215
-0.22664176 -1.6519566 0.79484576 16777215
-0.22989209 -1.6519572 0.79484546 16777215
-0.23314239 -1.6519579 0.7948451 16777215
-0.23639281 -1.6519589 0.79484451 16777215
-0.23964284 -1.6519579 0.7948451 16777215
-0.24289261 -1.651955 0.79484653 16777215
-0.24614237 -1.6519524 0.79484791 16777215
-0.24939214 -1.6519496 0.79484934 16777215
-0.25264251 -1.6519506 0.79484886 16777215
-0.25589311 -1.6519529 0.79484767 16777215
-0.25914383 -1.6519558 0.79484612 16777215
-0.26233625 -1.6516304 0.79501379 16777215
-0.2650649 -1.6487293 0.79650807 16777215
-0.26774704 -1.6456368 0.79810101 16777215
-0.27022988 -1.6415277 0.80021769 16777215
-0.27269286 -1.6374009 0.80234325 16777215
-0.27513099 -1.6332309 0.80449116 16777215
-0.27754265 -1.629011 0.80666476 16777215
-0.27958143 -1.6229354 0.80979437 16777215
-0.28146124 -1.6161664 0.81328094 16777215
-0.28328717 -1.6092629 0.81683695 16777215
-0.28415322 -1.5976485 0.82281935 16777215
-0.28561455 -1.5892484 0.82714623 16777215
-0.28956759 -1.5933602 0.8250283 6710886
-0.11085774 -1.589265 0.82362229 6842472
-0.1134384 -1.5830911 0.8268165 16645629
-0.1166805 -1.584514 0.82608038 12961221
-0.12393835 -1.6293321 0.80289257 9408399
-0.12774687 -1.6356971 0.79959947 9671571
-0.13156432 -1.6418867 0.79639715 9934743
-0.1350933 -1.6448923 0.79484206 16777215
-0.13833286 -1.6448975 0.79483944 16777215
-0.14157233 -1.6449016 0.7948373 16777215
-0.1448113 -1.6449008 0.79483771 16777215
-0.1480501 -1.6448985 0.79483891 16777215
-0.1512889 -1.644896 0.79484016 16777215
-0.15452765 -1.6448934 0.79484153 16777215
-0.15776674 -1.644894 0.79484123 16777215
-0.16100594 -1.6448953 0.79484051 16777215
-0.16424514 -1.6448967 0.7948398 16777215
-0.16748437 -1.6448983 0.79483902 16777215
-0.1707236 -1.6448997 0.79483825 16777215
-0.17396249 -1.6448984 0.79483896 16777215
-0.17720138 -1.644897 0.79483962 16777215
-0.18044025 -1.6448957 0.79484034 16777215
-0.18367912 -1.6448942 0.79484105 16777215
-0.18691798 -1.6448929 0.79484177 16777215
-0.19015691 -1.6448921 0.79484218 16777215
-0.19339587 -1.6448916 0.79484248 16777215
-0.19663483 -1.644891 0.79484278 16777215
-0.19987382 -1.6448908 0.79484296 16777215
-0.2031129 -1.644891 0.79484278 16777215
-0.20635198 -1.6448914 0.7948426 16777215
-0.20959096 -1.6448909 0.79484284 16777215
-0.21282992 -1.6448905 0.79484308 16777215
-0.21606889 -1.6448901 0.79484326 16777215
-0.21930762 -1.6448882 0.79484433 16777215
-0.22254629 -1.6448857 0.79484552 16777215
-0.22578533 -1.6448858 0.79484546 16777215
-0.22902443 -1.6448864 0.79484516 16777215
-0.23226358 -1.644887 0.79484481 16777215
-0.23550276 -1.6448882 0.79484433 16777215
-0.23874195 -1.644889 0.79484379 16777215
-0.24198054 -1.6448864 0.79484516 16777215
-0.24521913 -1.6448838 0.79484653 16777215
-0.24845769 -1.644881 0.79484797 16777215
-0.25169641 -1.6448792 0.79484886 16777215
-0.2549358 -1.6448814 0.79484773 16777215
-0.25817519 -1.6448838 0.79484648 16777215
-0.26141495 -1.6448879 0.79484439 16777215
-0.2646547 -1.6448919 0.7948423 16777215
-0.26718277 -1.6409805 0.79686606 16777215
-0.26967275 -1.6369481 0.79895222 16777215
-0.27213967 -1.6328799 0.80105704 16777215
-0.27457952 -1.6287553 0.80319101 16777215
-0.27664864 -1.6227669 0.80628926 16777215
-0.27859145 -1.6162468 0.80966246 16777215
-0.28047186 -1.609542 0.81313145 16777215
-0.28144115 -1.5983269 0.8189339 16777215
-0.28173411 -1.5839258 0.82638466 16777215
-0.28463298 -1.5828445 0.82694411 15987699
-0.11175011 -1.5980951 0.81551147 6710886
-0.11357054 -1.5830928 0.82330751 6842472
-0.11617559 -1.5774384 0.82624596 15592941
-0.1190875 -1.57535 0.82733119 16777215
-0.12730731 -1.6295033 0.79918975 9671571
-0.13110948 -1.6356263 0.79600781 9934743
-0.13455397 -1.6378691 0.7948423 16777215
-0.13778239 -1.6378744 0.79483962 16777215
-0.14101079 -1.6378789 0.79483724 16777215
-0.14423887 -1.6378802 0.79483652 16777215
-0.14746657 -1.6378779 0.79483771 16777215
-0.15069425 -1.6378757 0.79483891 16777215
-0.1539219 -1.6378732 0.79484028 16777215
-0.15714967 -1.6378716 0.79484099 16777215
-0.16037774 -1.6378732 0.79484028 16777215
-0.16360582 -1.6378744 0.79483962 16777215
-0.16683392 -1.6378758 0.79483885 16777215
-0.17006205 -1.6378775 0.79483795 16777215
-0.17328998 -1.6378775 0.79483795 16777215
-0.17651774 -1.637876 0.79483873 16777215
-0.17974551 -1.6378748 0.79483938 16777215
-0.18297327 -1.6378734 0.7948401 16777215
-0.18620101 -1.637872 0.79484081 16777215
-0.18942876 -1.6378707 0.79484147 16777215
-0.19265661 -1.6378702 0.79484171 16777215
-0.19588445 -1.6378696 0.794842 16777215
-0.1991123 -1.6378691 0.7948423 16777215
-0.20234028 -1.6378696 0.79484206 16777215
-0.20556824 -1.6378698 0.79484189 16777215
-0.20879614 -1.6378697 0.79484195 16777215
-0.212024 -1.6378694 0.79484218 16777215
-0.21525185 -1.6378689 0.79484242 16777215
-0.21847954 -1.6378675 0.79484314 16777215
-0.22170711 -1.6378652 0.79484433 16777215
-0.22493477 -1.6378636 0.79484516 16777215
-0.22816278 -1.6378642 0.79484487 16777215
-0.23139076 -1.6378648 0.79484451 16777215
-0.23461883 -1.6378657 0.79484409 16777215
-0.23784693 -1.637867 0.79484344 16777215
-0.24107473 -1.6378661 0.79484385 16777215
-0.2443022 -1.6378636 0.79484522 16777215
-0.24752964 -1.6378609 0.79484659 16777215
-0.2507571 -1.6378583 0.79484797 16777215
-0.25398505 -1.6378584 0.79484785 16777215
-0.25721329 -1.6378605 0.79484677 16777215
-0.26044184 -1.6378644 0.79484481 16777215
-0.2636705 -1.6378683 0.79484272 16777215
-0.26662093 -1.6363434 0.79563522 16777215
-0.26911306 -1.6323607 0.79770488 16777215
-0.27158064 -1.6283333 0.79979765 16777215
-0.27366376 -1.6223482 0.80290794 16777215
-0.27566546 -1.6160629 0.80617422 16777215
-0.27760762 -1.6096007 0.8095324 16777215
-0.27860326 -1.5983983 0.81535381 16777215
-0.27757883 -1.5771307 0.82640582 16777215
-0.28046656 -1.5760372 0.82697415 16185078
-0.11452669 -1.5924007 0.81493425 6710886
-0.11642145 -1.5786649 0.8221038 6710886
-0.11903265 -1.573271 0.82491916 8487297
-0.12184584 -1.570244 0.82649916 15592941
-0.12480719 -1.5688771 0.82721257 16579836
-0.13401885 -1.6308995 0.79483962 16777215
-0.1372357 -1.6308991 0.7948398 16777215
-0.14045312 -1.6309042 0.79483718 16777215
-0.14367026 -1.6309066 0.79483587 16777215
-0.14688703 -1.6309055 0.79483646 16777215
-0.15010367 -1.6309032 0.79483771 16777215
-0.15332028 -1.6309006 0.79483902 16777215
-0.15653688 -1.630898 0.7948404 16777215
-0.15975384 -1.6308988 0.79483998 16777215
-0.16297089 -1.6309001 0.79483926 16777215
-0.16618793 -1.6309015 0.79483861 16777215
-0.16940501 -1.6309031 0.79483777 16777215
-0.17262208 -1.6309046 0.794837 16777215
-0.1758388 -1.6309032 0.79483771 16777215
-0.17905551 -1.6309018 0.79483843 16777215
-0.18227224 -1.6309006 0.79483908 16777215
-0.18548895 -1.6308991 0.7948398 16777215
-0.18870565 -1.6308978 0.79484051 16777215
-0.19192241 -1.6308969 0.79484093 16777215
-0.19513921 -1.6308963 0.79484123 16777215
-0.19835602 -1.6308959 0.79484153 16777215
-0.20157292 -1.6308961 0.79484141 16777215
-0.20478985 -1.6308963 0.79484123 16777215
-0.20800677 -1.6308967 0.79484105 16777215
-0.21122359 -1.6308962 0.79484129 16777215
-0.21444041 -1.6308959 0.79484153 16777215
-0.21765712 -1.6308948 0.79484206 16777215
-0.22087364 -1.6308925 0.79484326 16777215
-0.22409014 -1.6308903 0.79484451 16777215
-0.22730699 -1.6308901 0.79484451 16777215
-0.23052393 -1.6308906 0.79484427 16777215
-0.23374094 -1.6308913 0.79484391 16777215
-0.23695798 -1.6308925 0.79484326 16777215
-0.24017505 -1.6308937 0.7948426 16777215
-0.24339153 -1.6308913 0.79484391 16777215
-0.24660794 -1.6308887 0.79484528 16777215
-0.24982436 -1.630886 0.79484665 16777215
-0.25304079 -1.6308835 0.79484797 16777215
-0.25625801 -1.6308857 0.79484683 16777215
-0.25947541 -1.6308888 0.79484522 16777215
-0.26269299 -1.6308929 0.79484308 16777215
-0.26591021 -1.6308945 0.79484218 16777215
-0.26852262 -1.6276124 0.79655534 16777215
-0.27063113 -1.6216954 0.79964381 16777215
-0.27268863 -1.615635 0.80280703 16777215
-0.27468878 -1.6094033 0.80605972 16777215
-0.27564543 -1.5978764 0.81207621 16777215
-0.27318954 -1.5690306 0.82713246 16777215
-0.27648497 -1.5700717 0.82658911 6710886
-0.28092921 -1.576882 0.82303441 6710886
-0.11729562 -1.5868182 0.81431776 6710886
-0.11947154 -1.5765206 0.81971633 6710886
-0.12204924 -1.5709084 0.8226586 6710886
-0.12465219 -1.5657933 0.82534021 8487297
-0.12747371 -1.5631015 0.82675129 15592941
-0.13053039 -1.5628512 0.8268826 15132390
-0.13989918 -1.6239766 0.7948373 16777215
-0.14310539 -1.6239794 0.79483587 16777215
-0.14631143 -1.6239805 0.79483533 16777215
-0.14951712 -1.6239783 0.79483652 16777215
-0.15272278 -1.6239758 0.79483783 16777215
-0.1559284 -1.6239733 0.79483914 16777215
-0.15913419 -1.6239721 0.79483974 16777215
-0.16234027 -1.6239734 0.79483902 16777215
-0.16554634 -1.6239747 0.79483837 16777215
-0.16875245 -1.6239762 0.79483753 16777215
-0.17195855 -1.6239778 0.79483676 16777215
-0.17516448 -1.6239778 0.79483676 16777215
-0.17837025 -1.6239765 0.79483742 16777215
-0.181576 -1.623975 0.79483813 16777215
-0.18478173 -1.6239737 0.79483885 16777215
-0.18798746 -1.6239724 0.79483962 16777215
-0.19119322 -1.6239712 0.79484016 16777215
-0.19439907 -1.6239706 0.79484046 16777215
-0.19760491 -1.6239702 0.79484075 16777215
-0.2008108 -1.62397 0.79484081 16777215
-0.20401677 -1.6239705 0.79484057 16777215
-0.20722273 -1.6239707 0.7948404 16777215
-0.21042864 -1.6239707 0.7948404 16777215
-0.21363449 -1.6239704 0.79484063 16777215
-0.21684033 -1.6239698 0.79484093 16777215
-0.22004588 -1.6239675 0.79484212 16777215
-0.22325142 -1.6239653 0.79484332 16777215
-0.22645704 -1.6239634 0.79484427 16777215
-0.22966303 -1.623964 0.79484391 16777215
-0.23286901 -1.6239645 0.79484367 16777215
-0.23607512 -1.6239657 0.79484308 16777215
-0.23928122 -1.6239671 0.79484242 16777215
-0.24248709 -1.6239667 0.7948426 16777215
-0.24569254 -1.6239641 0.79484391 16777215
-0.24889798 -1.6239614 0.79484522 16777215
-0.25210345 -1.6239588 0.79484665 16777215
-0.25530922 -1.6239583 0.79484695 16777215
-0.2585156 -1.623961 0.79484552 16777215
-0.26172221 -1.623965 0.79484344 16777215
-0.26492828 -1.6239662 0.79484284 16777215
-0.26756012 -1.6208515 0.79647565 16777215
-0.26966584 -1.6149824 0.79955256 16777215
-0.27171999 -1.6089666 0.80270636 16777215
-0.27261013 -1.5969671 0.80899721 16777215
-0.26915669 -1.5626553 0.82698524 16777215
-0.27263522 -1.5646988 0.82591391 6710886
-0.27754027 -1.5739577 0.82106 6710886
-0.12012745 -1.5821007 0.81326455 6710886
-0.12257868 -1.5750076 0.81699944 6710886
-0.12508118 -1.5687428 0.82029825 6710886
-0.12763068 -1.5632116 0.82321072 6710886
-0.13026282 -1.5587225 0.82557446 14342874
-0.13316418 -1.5570263 0.82646763 14342874
-0.13605894 -1.555333 0.8273592 14342874
-0.14573967 -1.6171018 0.79483455 16777215
-0.14893454 -1.6171004 0.79483533 16777215
-0.15212932 -1.617098 0.79483658 16777215
-0.15532407 -1.6170955 0.79483789 16777215
-0.15851881 -1.6170928 0.7948392 16777215
-0.16171393 -1.6170938 0.79483879 16777215
-0.16490911 -1.6170951 0.79483813 16777215
-0.16810432 -1.6170965 0.7948373 16777215
-0.17129955 -1.6170981 0.79483652 16777215
-0.17449474 -1.6170994 0.79483575 16777215
-0.17768961 -1.6170981 0.79483652 16777215
-0.18088448 -1.6170969 0.79483712 16777215
-0.18407933 -1.6170955 0.79483789 16777215
-0.18727417 -1.6170942 0.79483861 16777215
-0.19046903 -1.6170927 0.79483926 16777215
-0.19366394 -1.6170919 0.79483968 16777215
-0.19685888 -1.6170914 0.79483998 16777215
-0.20005387 -1.6170912 0.7948401 16777215
-0.20324895 -1.6170915 0.79483992 16777215
-0.20644403 -1.6170919 0.79483968 16777215
-0.20963909 -1.6170923 0.79483956 16777215
-0.21283405 -1.6170918 0.79483974 16777215
-0.216029 -1.6170914 0.79483998 16777215
-0.21922374 -1.6170895 0.79484105 16777215
-0.22241838 -1.6170872 0.79484224 16777215
-0.22561303 -1.6170849 0.79484344 16777215
-0.22880797 -1.6170845 0.79484367 16777215
-0.23200308 -1.617085 0.79484338 16777215
-0.23519824 -1.6170861 0.79484284 16777215
-0.23839344 -1.6170872 0.79484224 16777215
-0.24158867 -1.6170883 0.79484159 16777215
-0.24478336 -1.6170865 0.7948426 16777215
-0.24797793 -1.6170839 0.79484391 16777215
-0.25117248 -1.6170814 0.79484528 16777215
-0.25436699 -1.6170787 0.79484665 16777215
-0.25756228 -1.6170803 0.79484588 16777215
-0.26075798 -1.617084 0.79484385 16777215
-0.26395315 -1.6170852 0.79484326 16777215
-0.26660264 -1.6141285 0.79640019 16777215
-0.26851207 -1.6072696 0.80001169 16777215
-0.26204175 -1.5561256 0.82694185 16777215
-0.26526493 -1.5569254 0.82652074 6710886
-0.26892734 -1.5599879 0.82490814 6710886
-0.27426291 -1.5715793 0.81880462 6710886
-0.12340727 -1.5822483 0.80965316 6710886
-0.12572664 -1.5739167 0.8140595 6710886
-0.12816244 -1.5671048 0.817662 6710886
-0.130648 -1.5610608 0.82085842 6710886
-0.13337234 -1.5575728 0.82270312 6710886
-0.13612813 -1.5545198 0.82431769 6710886
-0.13893764 -1.5520844 0.82560575 14342874
-0.14181931 -1.5504009 0.82649601 14342874
-0.14469437 -1.5487198 0.82738513 14342874
-0.15472382 -1.6102642 0.7948367 16777215
-0.15790775 -1.6102617 0.79483807 16777215
-0.16109185 -1.6102607 0.79483849 16777215
-0.1642762 -1.6102619 0.79483789 16777215
-0.16746059 -1.6102635 0.79483706 16777215
-0.17064498 -1.6102649 0.79483628 16777215
-0.17382938 -1.6102663 0.79483557 16777215
-0.17701361 -1.6102663 0.79483557 16777215
-0.18019764 -1.610265 0.79483622 16777215
-0.18338169 -1.6102637 0.79483688 16777215
-0.18656571 -1.6102624 0.79483765 16777215
-0.18974976 -1.6102611 0.79483825 16777215
-0.19293378 -1.6102599 0.79483896 16777215
-0.19611792 -1.6102594 0.79483926 16777215
-0.19930206 -1.6102589 0.7948395 16777215
-0.20248631 -1.6102593 0.79483932 16777215
-0.20567058 -1.6102597 0.79483908 16777215
-0.20885482 -1.61026 0.79483891 16777215
-0.21203902 -1.61026 0.79483891 16777215
-0.21522316 -1.6102595 0.79483914 16777215
-0.21840714 -1.6102581 0.79483992 16777215
-0.221591 -1.6102558 0.79484105 16777215
-0.22477484 -1.6102535 0.7948423 16777215
-0.22795869 -1.6102515 0.79484338 16777215
-0.23114298 -1.610252 0.79484308 16777215
-0.2343273 -1.6102529 0.79484266 16777215
-0.23751168 -1.610254 0.79484206 16777215
-0.24069606 -1.6102551 0.79484141 16777215
-0.24388032 -1.6102555 0.79484123 16777215
-0.24706407 -1.6102529 0.79484266 16777215
-0.25024784 -1.6102504 0.79484397 16777215
-0.25343156 -1.6102479 0.79484528 16777215
-0.25661552 -1.6102465 0.794846 16777215
-0.25980026 -1.6102499 0.79484427 16777215
-0.25187767 -1.5494418 0.82700324 16777215
-0.25497949 -1.5496678 0.82688373 16777215
-0.25836498 -1.5514078 0.8259635 6710886
-0.2620061 -1.5544645 0.82434696 6710886
-0.26589698 -1.5587647 0.82207274 6710886
-0.27114463 -1.5700089 0.81612611 6710886
-0.12702759 -1.5858328 0.80420864 6710886
-0.12895374 -1.5736072 0.81070256 6710886
-0.13127334 -1.5657665 0.81486732 6710886
-0.13381842 -1.5604221 0.81770617 6710886
-0.13654889 -1.5570474 0.81949872 6710886
-0.1392934 -1.553932 0.82115346 6710886
-0.14203329 -1.5508908 0.82276887 6710886
-0.14476208 -1.5478616 0.82437789 6710886
-0.14755322 -1.5454916 0.8256368 14342874
-0.15041529 -1.5438198 0.82652479 14342874
-0.15335402 -1.542859 0.82703513 12829635
-0.15633512 -1.5422854 0.82733977 16777215
-0.1668212 -1.6034764 0.79483682 16777215
-0.16999485 -1.6034778 0.79483604 16777215
-0.1731685 -1.6034794 0.79483533 16777215
-0.17634214 -1.6034807 0.79483455 16777215
-0.17951544 -1.6034794 0.79483533 16777215
-0.18268874 -1.6034781 0.79483593 16777215
-0.18586203 -1.6034768 0.7948367 16777215
-0.18903533 -1.6034755 0.79483736 16777215
-0.1922086 -1.6034741 0.79483813 16777215
-0.19538195 -1.6034734 0.79483849 16777215
-0.19855535 -1.6034728 0.79483873 16777215
-0.20172884 -1.6034731 0.79483867 16777215
-0.20490234 -1.6034734 0.79483849 16777215
-0.20807587 -1.6034738 0.79483825 16777215
-0.21124937 -1.6034741 0.79483813 16777215
-0.21442276 -1.6034737 0.79483831 16777215
-0.21759608 -1.6034727 0.79483879 16777215
-0.2207692 -1.6034706 0.79483998 16777215
-0.22394228 -1.6034683 0.79484123 16777215
-0.22711535 -1.6034658 0.79484242 16777215
-0.2302887 -1.6034652 0.79484278 16777215
-0.23346223 -1.6034658 0.79484242 16777215
-0.23663588 -1.603467 0.79484183 16777215
-0.23980953 -1.6034683 0.79484123 16777215
-0.24298318 -1.6034694 0.79484063 16777215
-0.24615638 -1.6034681 0.79484129 16777215
-0.2493294 -1.6034654 0.79484266 16777215
-0.24178509 -1.5428116 0.82706028 16777215
-0.24487399 -1.5430318 0.82694334 16777215
-0.24805297 -1.5437453 0.82656437 6710886
-0.25154936 -1.5461789 0.82527161 6710886
-0.25530374 -1.5499543 0.82326627 6710886
-0.25916815 -1.5542356 0.82099223 6710886
-0.26311725 -1.5588727 0.81852907 6710886
-0.26851088 -1.5709736 0.81210136 6710886
-0.13245487 -1.575955 0.80592251 6710886
-0.13446826 -1.5652357 0.8116411 6710886
-0.13709219 -1.5607303 0.81404471 6710886
-0.13978702 -1.557057 0.81600434 6710886
-0.14250065 -1.5536929 0.81779903 6710886
-0.14520274 -1.5503488 0.81958312 6710886
-0.14792152 -1.5472721 0.82122451 6710886
-0.15063454 -1.5442545 0.82283431 6710886
-0.15349801 -1.5426215 0.82370549 6710886
-0.15635681 -1.5410051 0.82456779 6710886
-0.15923911 -1.5396366 0.82529801 6710886
-0.16215795 -1.5386083 0.82584649 12829635
-0.16508189 -1.5376542 0.82635558 12829635
-0.16800201 -1.5367006 0.82686424 12829635
-0.17091841 -1.5357485 0.82737225 12829635
-0.18200047 -1.5967381 0.79483503 16777215
-0.1851631 -1.5967368 0.79483569 16777215
-0.1883257 -1.5967355 0.79483646 16777215
-0.19148833 -1.5967342 0.79483706 16777215
-0.19465093 -1.596733 0.79483777 16777215
-0.19781365 -1.5967324 0.79483801 16777215
-0.20097643 -1.5967324 0.79483801 16777215
-0.20413929 -1.5967329 0.79483777 16777215
-0.20730212 -1.5967332 0.79483765 16777215
-0.21046495 -1.5967335 0.79483747 16777215
-0.21362774 -1.5967335 0.79483747 16777215
-0.21679047 -1.5967331 0.79483771 16777215
-0.2199529 -1.5967307 0.79483896 16777215
-0.22311532 -1.5967286 0.79484016 16777215
-0.22627775 -1.5967263 0.79484129 16777215
-0.22944017 -1.5967242 0.79484248 16777215
-0.23260303 -1.5967246 0.79484218 16777215
-0.22563562 -1.5359384 0.82727087 16777215
-0.22877045 -1.5365096 0.82696611 11382189
-0.2319621 -1.5373999 0.82649118 11382189
-0.23515759 -1.5382915 0.82601553 11382189
-0.23840292 -1.5394469 0.8253991 6710886
-0.24171506 -1.5409536 0.82459527 6710886
-0.24510513 -1.5428613 0.82357752 6710886
-0.24862991 -1.5454705 0.82218564 6710886
-0.25246787 -1.5497326 0.81991184 6710886
-0.25644475 -1.5546513 0.81728786 6710886
-0.26050514 -1.5599082 0.81448328 6710886
-0.13786252 -1.5665573 0.80741811 6710886
-0.14047611 -1.5619923 0.80986398 6710886
-0.14310789 -1.5577642 0.81212944 6710886
-0.14576991 -1.5539622 0.81416655 6710886
-0.14843762 -1.5503474 0.81610334 6710886
-0.15112312 -1.5470145 0.81788921 6710886
-0.15393426 -1.5448648 0.81904101 6710886
-0.15678538 -1.5431228 0.81997442 6710886
-0.15964425 -1.5415027 0.82084239 6710886
-0.16249691 -1.5398862 0.82170856 6710886
-0.16534352 -1.538274 0.82257235 6710886
-0.16818401 -1.5366658 0.82343405 6710886
-0.17101838 -1.5350611 0.82429391 6710886
-0.17387272 -1.5336574 0.825046 6710886
-0.1768503 -1.5332158 0.82528263 6710886
-0.17983226 -1.5328196 0.82549489 11250603
-0.18282388 -1.532505 0.82566345 11250603
-0.18581425 -1.5321908 0.82583183 11250603
-0.18880332 -1.5318766 0.82600027 11250603
-0.1917854 -1.5315226 0.82618988 8684676
-0.19475767 -1.5311117 0.82641006 8684676
-0.19772829 -1.5307008 0.82663012 8684676
-0.20076627 -1.530749 0.82660437 12500670
-0.20384617 -1.5310708 0.82643187 6908265
-0.20693338 -1.5314313 0.82623869 6908265
-0.21002209 -1.5317922 0.82604545 6908265
-0.21311231 -1.5321529 0.8258521 6908265
-0.21620405 -1.5325142 0.82565856 6908265
-0.21931094 -1.5329593 0.82542002 6710886
-0.22242081 -1.5334116 0.82517773 6710886
-0.22559765 -1.5342542 0.82472628 6710886
-0.22894366 -1.5360782 0.82374895 6710886
-0.23231117 -1.5379841 0.82272774 6710886
-0.2356873 -1.5398951 0.82170385 6710886
-0.2390721 -1.5418108 0.8206774 6710886
-0.24247296 -1.5437728 0.81962615 6710886
-0.24591024 -1.5458933 0.81848991 6710886
-0.24979268 -1.5504235 0.81606263 6710886
-0.25390756 -1.5561212 0.81300974 6710886
-0.25825906 -1.5629705 0.80933982 6710886
-0.14410733 -1.5654024 0.80451453 6710886
-0.14657041 -1.5596555 0.80760717 6710886
-0.14915155 -1.5551536 0.81002975 6710886
-0.15175535 -1.5510069 0.81226122 6710886
-0.15447572 -1.547994 0.81388253 6710886
-0.15731116 -1.5460442 0.81493175 6710886
-0.16015053 -1.5441922 0.8159284 6710886
-0.16299392 -1.5424339 0.81687468 6710886
-0.16583049 -1.5406784 0.81781924 6710886
-0.16866027 -1.5389262 0.81876218 6710886
-0.1714834 -1.537178 0.81970298 6710886
-0.17431663 -1.5355606 0.82057339 6710886
-0.17729016 -1.5350379 0.82085466 6710886
-0.18026161 -1.5345157 0.82113564 6710886
-0.18323095 -1.5339937 0.82141656 6710886
-0.18619823 -1.5334723 0.82169706 6710886
-0.18916352 -1.532952 0.82197714 6710886
-0.19212697 -1.5324335 0.82225609 6710886
-0.19508836 -1.5319157 0.8225348 6710886
-0.19804767 -1.5313981 0.82281333 6710886
-0.20110953 -1.5315754 0.82271791 6710886
-0.20422842 -1.5321217 0.82242393 6710886
-0.20734961 -1.5326684 0.82212973 6710886
-0.21047311 -1.5332155 0.82183528 6710886
-0.21359891 -1.5337631 0.82154065 6710886
-0.21672699 -1.5343108 0.82124591 6710886
-0.21985725 -1.5348581 0.8209514 6710886
-0.22298983 -1.5354059 0.8206566 6710886
-0.22628862 -1.5369357 0.81983334 6710886
-0.22969063 -1.539039 0.81870145 6710886
-0.23310231 -1.5411485 0.81756628 6710886
-0.23652367 -1.5432639 0.81642789 6710886
-0.23996101 -1.5454211 0.81526709 6710886
-0.24345048 -1.5478226 0.81397474 6710886
-0.247326 -1.5523226 0.81155318 6710886
-0.25181603 -1.5601102 0.8073625 6710886
-0.15278825 -1.5584468 0.8047446 6710886
-0.1552211 -1.5528435 0.80777293 6710886
-0.15801172 -1.550414 0.80908591 6710886
-0.16081521 -1.5481715 0.81029797 6710886
-0.16361602 -1.5459816 0.81148148 6710886
-0.16643877 -1.544037 0.81253248 6710886
-0.16925342 -1.5420913 0.81358409 6710886
-0.17206043 -1.5401481 0.8146342 6710886
-0.17486611 -1.5382553 0.81565726 6710886
-0.17783539 -1.5376381 0.81599087 6710886
-0.18080924 -1.537073 0.81629622 6710886
-0.18378085 -1.5365084 0.8166014 6710886
-0.18675019 -1.5359442 0.81690633 6710886
-0.18971725 -1.5353801 0.81721115 6710886
-0.19268176 -1.5348146 0.81751686 6710886
-0.19564404 -1.5342495 0.81782222 6710886
-0.19860403 -1.5336847 0.81812739 6710886
