# .PCD v0.7 - Point Cloud Data file format
VERSION 0.7
FIELDS x y z rgb
SIZE 4 4 4 4
TYPE F F F U
COUNT 1 1 1 1
WIDTH 1176
HEIGHT 1
VIEWPOINT 0 0 0 1 0 0 0
POINTS 1176
DATA ascii
0.36353087 -1.5957748 0.93985653 4799531
0.3617605 -1.6015534 0.93731397 4799530
0.36020654 -1.6084342 0.93428636 5130048
0.35982138 -1.6208755 0.92881227 2564916
0.46275032 -1.5909526 0.93868095 9931643
0.45737314 -1.5826868 0.94233561 9998728
0.45285928 -1.5773661 0.94468808 9472642
0.44895643 -1.5741521 0.94610918 8880247
0.44507003 -1.5709518 0.94752413 8090471
0.44155651 -1.569056 0.94836235 7695971
0.43805486 -1.5671761 0.94919354 7498853
0.43462843 -1.5655456 0.94991452 7236196
0.43138111 -1.5645539 0.95035297 6907232
0.42813802 -1.5635635 0.95079082 6512474
0.424918 -1.562645 0.95119691 6249303
0.42186326 -1.5623378 0.95133269 6249559
0.41880971 -1.5620308 0.95146847 6249303
0.41575748 -1.5617242 0.95160401 6315870
0.41279596 -1.5617636 0.95158654 6315612
0.40989619 -1.5620447 0.95146239 6249560
0.40699536 -1.5623258 0.95133805 6183509
0.40409315 -1.5626059 0.95121425 5985872
0.40131295 -1.5633768 0.95087337 6117715
0.39854521 -1.5642103 0.95050478 6183510
0.39577442 -1.565045 0.95013583 6249559
0.39302278 -1.5659709 0.94972646 6249303
0.39038342 -1.5673743 0.94910586 6117459
0.38773918 -1.5687805 0.94848412 5920078
0.38509005 -1.5701895 0.94786119 5787976
0.38252079 -1.5719589 0.94707888 5722183
0.3800115 -1.574013 0.94617057 5985871
0.37749535 -1.5760727 0.94525999 6117459
0.3750155 -1.5783243 0.94426447 6183509
0.37266409 -1.5811757 0.94300371 6117716
0.37030411 -1.5840383 0.94173807 6117716
0.36801744 -1.5872771 0.94030613 5919821
0.36588347 -1.591257 0.93854642 5524546
0.36373758 -1.5952539 0.93677914 5260856
0.36194712 -1.6009442 0.93426329 4931117
0.36030686 -1.6074287 0.93139619 5195582
0.35956633 -1.6182116 0.92662865 2565174
0.46364969 -1.5926416 0.93462694 10787986
0.45800304 -1.5834576 0.93870723 9998470
0.45339298 -1.577817 0.94121337 9076851
0.44948006 -1.5745832 0.94264996 8616815
0.44558781 -1.5713781 0.94407403 8485747
0.44202125 -1.5693054 0.94499487 8091247
0.43851519 -1.5674232 0.94583106 7696490
0.43505293 -1.565675 0.94660783 7235938
0.43180203 -1.5646822 0.94704884 6775129
0.42855537 -1.5636908 0.94748932 6117198
0.42531329 -1.5627019 0.94792867 5985870
0.42225075 -1.5623769 0.94807309 6183510
0.41919416 -1.5620695 0.9482097 6249303
0.41613895 -1.5617626 0.94834602 6315869
0.41315556 -1.5617288 0.94836098 6315868
0.41025323 -1.56201 0.94823605 6249560
0.40734982 -1.5622914 0.94811106 6249559
0.40444505 -1.5625719 0.94798642 6051923
0.4016456 -1.5632765 0.94767338 5788234
0.39887565 -1.5641109 0.94730276 5722185
0.39610261 -1.5649458 0.94693178 5854027
0.39333242 -1.5658062 0.94654953 6117458
0.39069116 -1.5672108 0.94592547 6183509
0.38804501 -1.5686178 0.94530034 6249303
0.38539398 -1.5700278 0.94467396 6183510
0.38280565 -1.5717257 0.94391954 6117716
0.38029474 -1.5737813 0.94300628 5985872
0.37777698 -1.5758423 0.94209063 5854028
0.37527561 -1.578009 0.94112802 5919821
0.37292296 -1.5808618 0.93986052 6051665
0.37056154 -1.5837255 0.9385882 6051922
0.36824733 -1.5868484 0.93720078 6183509
0.36611253 -1.5908301 0.93543178 6117716
0.36396593 -1.594829 0.93365514 6051922
0.36213404 -1.6003342 0.93120921 5854028
0.36040729 -1.6064225 0.92850423 5656650
0.35943806 -1.616138 0.92418778 2170421
0.4645527 -1.5943376 0.93055636 10721676
0.45863473 -1.5842307 0.93506837 9866625
0.45401537 -1.5785779 0.93759203 9538178
0.45000505 -1.5750154 0.93918234 9143678
0.44610691 -1.5718055 0.94061542 8617591
0.44248706 -1.5695554 0.94161987 8090732
0.43897653 -1.5676709 0.94246119 7498594
0.43547839 -1.5658047 0.94329429 6906198
0.43222386 -1.564811 0.94373792 6577235
0.42897362 -1.5638185 0.94418103 6512216
0.4257279 -1.5628284 0.94462299 6183509
0.42263907 -1.5624158 0.94480723 6183766
0.41957945 -1.5621082 0.94494456 6183766
0.41652113 -1.561801 0.94508177 6315612
0.41351587 -1.5616939 0.94512951 6315612
0.41061091 -1.5619755 0.94500387 6249560
0.40770489 -1.5622571 0.9448781 6249303
0.40479755 -1.5625379 0.94475281 6249303
0.40197885 -1.5631762 0.94446778 6249303
0.39920664 -1.564011 0.94409513 6183509
0.39643139 -1.5648469 0.94372195 5920336
0.39365315 -1.5656842 0.94334817 5722442
0.39099944 -1.5670468 0.94273984 5722184
0.38835132 -1.5684551 0.94211113 5788235
0.38569832 -1.5698659 0.94148129 5985615
0.38309097 -1.5714924 0.94075519 6117716
0.3805784 -1.5735492 0.93983698 6183509
0.37805909 -1.5756115 0.93891627 6183510
0.37553602 -1.577693 0.93798703 6183509
0.37318218 -1.5805473 0.93671274 6051922
0.37081945 -1.5834124 0.93543369 5985872
0.36847746 -1.5864195 0.93409127 5854027
0.36634189 -1.5904026 0.93231302 5854028
0.36419451 -1.5944035 0.93052691 5985871
0.36232108 -1.5997235 0.92815185 6117459
0.36053783 -1.6055543 0.92554879 6183509
0.35953903 -1.615129 0.92127436 2828091
0.46723497 -1.6022307 0.92369223 9603460
0.45926827 -1.585006 0.93141896 10261901
0.45463961 -1.5793409 0.9339602 9669763
0.4505313 -1.5754489 0.93570614 9011831
0.44662726 -1.5722339 0.93714833 8287850
0.44295388 -1.5698061 0.93823743 7827556
0.43943888 -1.5679191 0.93908387 7630438
0.43593192 -1.5660346 0.93992925 7367525
0.43264651 -1.56494 0.94042021 7104354
0.42939264 -1.5639465 0.94086599 6709853
0.42614329 -1.5629551 0.94131064 6315095
0.42302805 -1.5624549 0.941535 6183766
0.41996539 -1.562147 0.94167316 6183766
0.41690403 -1.5618393 0.94181114 6249819
0.41387683 -1.561659 0.94189209 6315869
0.41096932 -1.5619408 0.94176567 6249817
0.40806067 -1.5622227 0.94163918 6249560
0.40515071 -1.5625037 0.94151306 6051665
0.4023127 -1.5630755 0.94125658 6183510
0.39953822 -1.5639112 0.94088173 6183767
0.3967607 -1.5647477 0.94050652 6249303
0.39398021 -1.5655856 0.94013065 6249303
0.39130825 -1.5668826 0.93954879 6183510
0.38865817 -1.5682918 0.93891662 6051665
0.38600326 -1.5697038 0.93828326 5854028
0.38337666 -1.5712585 0.93758577 5656390
0.38086253 -1.5733167 0.93666261 5590597
0.37834162 -1.5753803 0.93573689 5919820
0.37581336 -1.5774478 0.93480951 5985614
0.37344176 -1.5802324 0.93356031 6117458
0.37107784 -1.583099 0.93227434 6183252
0.36870801 -1.5859898 0.93097758 6183509
0.36657155 -1.5899744 0.92919016 6117716
0.36442345 -1.5939773 0.92739451 5985872
0.36250836 -1.5991123 0.92509109 5985615
0.36072469 -1.6049432 0.92247546 5985872
0.35964006 -1.6141191 0.91835922 3288638
0.45990366 -1.5857835 0.92775893 9932159
0.45526558 -1.5801064 0.93031782 9340023
0.45105886 -1.5758832 0.93222141 9011832
0.44714886 -1.5726634 0.93367273 8748920
0.44342178 -1.5700573 0.93484741 8288627
0.43990225 -1.5681679 0.93569899 7893869
0.43639088 -1.5662812 0.93654943 7433574
0.43307006 -1.5650693 0.9370957 6972766
0.42981255 -1.5640745 0.93754405 6511957
0.42655957 -1.5630821 0.93799138 6051405
0.42341787 -1.5624942 0.93825638 6249302
0.42035216 -1.5621859 0.93839532 6249560
0.41728771 -1.561878 0.9385342 6315611
0.41423851 -1.5616241 0.93864858 6315869
0.41132832 -1.561906 0.93852144 6315354
0.40841705 -1.5621881 0.93839431 6249560
0.40550452 -1.5624696 0.93826741 6117973
0.40264714 -1.5629749 0.93803972 5854028
0.3998704 -1.5638112 0.93766284 5854026
0.39709061 -1.5646483 0.93728542 5788235
0.39430785 -1.5654869 0.93690747 6183251
0.39161754 -1.5667182 0.93635243 6183509
0.38896555 -1.5681285 0.93571687 6249302
0.38630867 -1.5695413 0.93507993 6183767
0.38366288 -1.5710243 0.93441147 6183510
0.38114715 -1.5730838 0.93348318 6183510
0.37862456 -1.5751487 0.93255246 5986129
0.37609476 -1.5772176 0.93161994 5919822
0.37370175 -1.5799172 0.93040311 5919564
0.37133652 -1.5827852 0.92911041 5853770
0.3689633 -1.5856682 0.92781091 5854027
0.3668015 -1.5895458 0.92606312 5985614
0.36465269 -1.5935508 0.92425787 6051665
0.36269581 -1.5985001 0.92202699 6051922
0.36091167 -1.6043311 0.91939878 6183509
0.35974115 -1.6131088 0.91544229 3749442
0.46068472 -1.5870675 0.92385989 10327435
0.45589358 -1.5808744 0.92666477 9801606
0.45158768 -1.5763186 0.92872804 9341057
0.44767177 -1.5730938 0.9301886 8814712
0.44389069 -1.5703089 0.93144983 8222574
0.44036663 -1.5684172 0.93230665 7630436
0.43685091 -1.5665283 0.93316215 7169628
0.43349451 -1.5651989 0.93376422 6774871
0.4302333 -1.5642028 0.93421531 6578008
0.42697662 -1.5632092 0.93466538 6315095
0.4238084 -1.5625334 0.93497145 6183766
0.42073959 -1.5622249 0.93511111 6183766
0.4176721 -1.5619166 0.93525082 6249561
0.41460598 -1.5616088 0.93539023 6315869
0.41168803 -1.5618713 0.93527132 6315354
0.40877414 -1.5621537 0.93514341 6249560
0.40585899 -1.5624355 0.93501574 6183767
0.40298218 -1.5628738 0.93481719 6249303
0.40020317 -1.5637108 0.93443817 6183510
0.39742112 -1.5645487 0.93405873 6117459
0.39463609 -1.5653878 0.93367863 5788235
0.39192736 -1.5665535 0.93315071 5788235
0.38927346 -1.5679648 0.93251151 5788233
0.38661456 -1.5693787 0.93187118 5920078
0.38395089 -1.5707958 0.93122941 5986128
0.38143212 -1.5728505 0.93029881 6117459
0.37890798 -1.5749168 0.92936289 6183509
0.37637657 -1.5769873 0.92842531 6183766
0.3739621 -1.5796014 0.92724138 6183509
0.37159562 -1.5824709 0.92594171 6117716
0.36922109 -1.5853552 0.92463541 6117716
0.36703181 -1.5891166 0.92293185 6051665
0.36488223 -1.5931234 0.92111713 5985871
0.36288351 -1.5978876 0.91895944 5920078
0.36109889 -1.6037186 0.9163186 5985614
0.3598423 -1.6120976 0.91252369 4867916
0.46158391 -1.5887597 0.91976327 10392970
0.45652354 -1.5816454 0.92300075 9537659
0.45211786 -1.5767552 0.92522609 8879986
0.44819599 -1.5735255 0.92669576 8485229
0.44436061 -1.5705612 0.9280448 8156523
0.44083208 -1.5686671 0.9289068 7827816
0.43731195 -1.566776 0.92976725 7564904
0.43391985 -1.5653286 0.93042594 7236196
0.430655 -1.5643317 0.93087965 6841439
0.42739463 -1.5633366 0.93133247 6446424
0.4241997 -1.5625727 0.93168002 6249303
0.42112786 -1.562264 0.93182057 6249560
0.41805726 -1.5619552 0.93196106 6315353
0.4149881 -1.5616472 0.93210125 6315869
0.4120484 -1.5618364 0.93201512 6249817
0.40913188 -1.562119 0.93188649 6183767
0.40621412 -1.5624012 0.93175811 6051922
0.40331775 -1.5627728 0.93158901 5985871
0.40053654 -1.5636104 0.93120784 6051665
0.39775223 -1.564449 0.93082625 6183510
0.39496487 -1.5652888 0.93044406 6183766
0.39223766 -1.5663885 0.92994368 6249303
0.38958186 -1.5678008 0.9293009 6183766
0.38692105 -1.5692158 0.92865705 6051923
0.38425541 -1.5706338 0.92801178 5985872
0.38171762 -1.5726169 0.9271093 5919821
0.37919182 -1.5746846 0.92616844 5854284
0.37665886 -1.5767564 0.92522556 5919564
0.37422287 -1.5792851 0.92407483 5919820
0.37185508 -1.5821563 0.92276829 5985614
0.36947924 -1.5850418 0.92145514 6051665
0.36726236 -1.5886868 0.91979641 6051921
0.36511207 -1.5926957 0.91797209 6117715
0.36307144 -1.5972743 0.91588861 6117715
0.36128634 -1.6031052 0.91323507 6117716
0.35994333 -1.6110852 0.90960371 6183510
0.46248591 -1.5904557 0.91565132 10458763
0.45715529 -1.5824186 0.91932613 9801349
0.4526493 -1.5771929 0.92171544 9341056
0.44872147 -1.5739583 0.92319441 8946298
0.44483161 -1.570814 0.92463207 8485748
0.44129854 -1.5689173 0.92549926 7959403
0.437774 -1.5670245 0.92636484 7433058
0.43434602 -1.5654587 0.92708075 6906457
0.43107754 -1.5644605 0.92753708 6511955
0.42781347 -1.5634642 0.92799264 6117198
0.42459178 -1.5626122 0.92838222 6117716
0.42151684 -1.5623031 0.92852354 6249560
0.4184432 -1.561994 0.92866486 6249560
0.41537094 -1.5616857 0.92880589 6315869
0.41240937 -1.5618013 0.92875296 6315611
0.40949023 -1.5620843 0.92862356 6315096
0.4065699 -1.5623668 0.92849433 6249559
0.40365398 -1.5626714 0.92835516 6117715
0.40087044 -1.5635097 0.92797184 5985872
0.39808387 -1.5643489 0.92758811 5787978
0.39529425 -1.5651895 0.92720377 5788234
0.3925485 -1.5662231 0.92673111 5721927
0.38989073 -1.5676365 0.92608494 5920078
0.38722801 -1.5690525 0.92543757 5985872
0.38456035 -1.5704715 0.92478871 6183509
0.38200355 -1.5723829 0.92391467 6117716
0.37947613 -1.5744518 0.92296875 6183510
0.37694156 -1.5765252 0.92202079 6117716
0.374484 -1.5789684 0.92090362 6117716
0.37211496 -1.581841 0.91959012 6051923
0.36973774 -1.5847276 0.91827023 6051665
0.36749327 -1.5882565 0.91665685 5986129
0.3653422 -1.5922674 0.91482294 5920078
0.36325955 -1.5966603 0.91281432 5920078
0.36147398 -1.6024914 0.91014814 5920078
0.36004442 -1.6100721 0.90668195 6117459
0.3602618 -1.625463 0.89964473 5854027
0.46339041 -1.5921544 0.9115243 10590348
0.45778894 -1.583194 0.91564077 9801090
0.4531821 -1.5776316 0.9181962 9077109
0.44924825 -1.574392 0.91968441 8550764
0.44533122 -1.5711665 0.92116624 8024677
0.44176608 -1.5691683 0.92208421 7761507
0.43823713 -1.5672733 0.9229548 7301214
0.43477309 -1.565589 0.92372859 7104095
0.43150091 -1.5645899 0.92418766 6775388
0.42823321 -1.5635922 0.92464596 6512474
0.42498463 -1.5626519 0.92507797 6183766
0.42190659 -1.5623423 0.92522013 6249303
0.41882986 -1.5620329 0.92536229 6183767
0.4157545 -1.5617241 0.92550415 6315869
0.41277105 -1.5617664 0.92548478 6315868
0.40984929 -1.5620496 0.9253546 6315353
0.40692633 -1.5623326 0.9252246 6249560
0.40400195 -1.5626143 0.9250952 6249560
0.401205 -1.563409 0.92473012 6249303
0.3984161 -1.5642488 0.92434424 6249303
0.39562422 -1.5650901 0.92395777 6183509
0.39285988 -1.5660576 0.92351335 6183253
0.3902002 -1.567472 0.92286354 5920079
0.38753551 -1.568889 0.92221254 5985872
0.38486588 -1.570309 0.92156017 5788233
0.38228995 -1.5721484 0.92071509 5854285
0.37976092 -1.5742188 0.91976398 5854027
0.37722468 -1.5762935 0.91881084 5919822
0.37474555 -1.5786511 0.91772771 5920076
0.37237525 -1.5815254 0.91640729 5854284
0.36999667 -1.5844133 0.91508061 5985872
0.36772448 -1.5878254 0.913513 5985871
0.36557263 -1.5918384 0.91166943 5985615
0.36344784 -1.5960455 0.90973669 5985614
0.36166179 -1.6018766 0.90705782 5985614
0.36014557 -1.6090583 0.90375853 5854284
0.36000323 -1.6227652 0.89746147 5853770
0.46429861 -1.59386 0.9073804 10721935
0.45842445 -1.5839716 0.91194463 9932677
0.4537766 -1.5782852 0.91456944 9406590
0.44977641 -1.574827 0.91616571 8946298
0.44585335 -1.5715965 0.91765684 8551541
0.44223464 -1.5694199 0.91866148 8090990
0.43870127 -1.5675228 0.91953719 7696489
0.43520099 -1.5657196 0.92036951 7301732
0.43192518 -1.5647192 0.9208312 6709336
0.42865378 -1.5637205 0.92129225 6314835
0.42538702 -1.5627245 0.92175204 6051665
0.42229712 -1.5623815 0.92191029 6249303
0.41921729 -1.5620719 0.92205322 6249560
0.41613883 -1.5617627 0.92219591 6315869
0.41313344 -1.5617312 0.92221045 6315611
0.410209 -1.5620148 0.92207956 6183767
0.40728348 -1.5622982 0.92194879 6117717
0.40435642 -1.5625801 0.92181867 5788235
0.4015401 -1.563308 0.92148268 5787977
0.39874893 -1.5641487 0.92109466 5854285
0.39595479 -1.5649905 0.92070603 5920078
0.39317179 -1.5658917 0.92028999 6117716
0.39051014 -1.5673071 0.91963673 6117716
0.38784349 -1.5687252 0.91898215 6183509
0.38517189 -1.5701462 0.9183262 6183766
0.38257682 -1.5719138 0.91751033 6183510
0.38004613 -1.5739853 0.91655415 6183510
0.37750834 -1.5760616 0.91559577 6117716
0.37500745 -1.5783335 0.91454709 6051923
0.3726359 -1.5812092 0.91321969 6117716
0.37025595 -1.5840983 0.91188616 6051666
0.36795598 -1.5873939 0.91036499 6051665
0.36580342 -1.5914087 0.90851182 6051664
0.36363822 -1.5954387 0.90665162 6051665
0.36184984 -1.6012614 0.90396404 6117459
0.36024678 -1.6080439 0.90083331 6051922
0.35974544 -1.6200734 0.89528072 5920078
0.46521056 -1.5955727 0.90321934 10524038
0.4590618 -1.5847516 0.90823776 9734523
0.45440453 -1.5790529 0.91088057 9208437
0.45030576 -1.5752628 0.91263831 8682350
0.4463768 -1.5720274 0.91413879 8156006
0.4427042 -1.5696719 0.91523117 7695455
0.43916643 -1.5677726 0.91611195 7366749
0.43563646 -1.5658747 0.91699219 6972249
0.4323504 -1.564849 0.91746783 6775386
0.42907518 -1.5638489 0.91793168 6512215
0.42580485 -1.5628519 0.91839409 6249302
0.42268836 -1.5624208 0.91859394 6249559
0.41960549 -1.5621109 0.91873771 6249303
0.41652393 -1.5618014 0.91888118 6315612
0.41349649 -1.5616963 0.91892999 6315612
0.41056943 -1.5619799 0.91879845 6249560
0.40764117 -1.5622635 0.9186669 6249303
0.40471154 -1.5625458 0.91853601 6183767
0.40187579 -1.5632069 0.91822946 6183509
0.39908236 -1.5640482 0.91783923 6051923
0.39628589 -1.5648906 0.91744858 6051665
0.39348638 -1.5657344 0.91705728 5919820
0.39082062 -1.5671421 0.91640443 5920078
0.388152 -1.5685612 0.91574627 5787977
0.38547844 -1.5699834 0.91508675 5853770
0.38286412 -1.5716788 0.9143005 5788235
0.38033181 -1.5737517 0.91333914 5854028
0.37779236 -1.5758293 0.91237563 5854027
0.37526977 -1.5780153 0.91136181 5985872
0.37289691 -1.5808927 0.91002738 5788233
0.37051564 -1.583783 0.90868694 5920078
0.36818779 -1.5869619 0.90721273 5985614
0.36603439 -1.5909781 0.90535015 5854027
0.36386847 -1.5950102 0.90348023 5787977
0.36203831 -1.6006461 0.90086639 5788234
0.36034805 -1.6070291 0.8979063 5919821
0.35948819 -1.6173862 0.893103 5853770
0.459701 -1.585534 0.90451998 10130313
0.4550342 -1.5798228 0.90718102 9603971
0.45083648 -1.5756997 0.9091022 9143934
0.4469015 -1.5724595 0.91061199 8617334
0.4431749 -1.5699246 0.91179317 8222575
0.43963253 -1.568023 0.9126792 7828075
0.43609816 -1.5661229 0.9135645 7433318
0.43277639 -1.564979 0.91409749 7038817
0.42949754 -1.5639777 0.91456407 6644060
0.42622352 -1.5629795 0.91502917 6314838
0.42308044 -1.5624603 0.9152711 6249303
0.41999441 -1.56215 0.91541564 6249560
0.41690975 -1.5618402 0.91556001 6315611
0.4138602 -1.561661 0.91564351 6315612
0.41093045 -1.561945 0.91551125 6249560
0.40799963 -1.562229 0.91537893 6249560
0.40506732 -1.5625116 0.91524726 5985871
0.40221214 -1.5631055 0.91497046 5985872
0.39941639 -1.5639476 0.91457814 6183766
0.39661759 -1.5647906 0.91418529 6183510
0.39381582 -1.5656352 0.91379184 6183510
0.39113164 -1.5669768 0.91316664 6183766
0.38846105 -1.5683969 0.91250491 6183510
0.38578552 -1.5698199 0.91184187 6117716
0.38315189 -1.5714432 0.91108555 6117716
0.38061792 -1.5735174 0.91011906 6051924
0.37807691 -1.5755967 0.90915024 6117716
0.37553245 -1.5776967 0.90817171 5985873
0.37315834 -1.5805756 0.90683031 6051922
0.3707757 -1.5834672 0.90548295 6051923
0.36841995 -1.5865291 0.90405625 6051666
0.36626565 -1.5905471 0.90218413 5986129
0.36409903 -1.5945811 0.90030444 6051665
0.36222696 -1.6000303 0.8977654 5919564
0.36044931 -1.6060134 0.89497763 5590338
0.35947108 -1.6158156 0.89041024 5062961
0.46040463 -1.5865377 0.90068871 9272938
0.45566583 -1.580595 0.9034707 9142384
0.45136851 -1.5761378 0.90555727 8747886
0.44742751 -1.5728925 0.90707648 8353386
0.44364661 -1.5701778 0.90834743 7761249
0.44009972 -1.5682738 0.90923876 7366233
0.43656087 -1.5663716 0.91012931 6839889
0.43320334 -1.5651094 0.91072017 6379338
0.42992079 -1.5641069 0.91118938 5786685
0.42664301 -1.5631074 0.91165733 5326134
0.42347324 -1.5624998 0.91194177 6183508
0.42038411 -1.5621892 0.9120872 6249303
0.41729635 -1.5618792 0.91223234 6249818
0.41422457 -1.5616257 0.91235089 6315612
0.4112922 -1.5619099 0.91221792 6249560
0.40835869 -1.5621941 0.91208482 6183510
0.40542376 -1.5624771 0.91195238 5063479
0.40254903 -1.5630041 0.91170573 4733740
0.39975101 -1.5638467 0.91131115 4667949
0.39694995 -1.5646905 0.91091621 5063478
0.39414579 -1.5655357 0.91052055 5260859
0.39144313 -1.5668111 0.90992343 5392701
0.38877058 -1.5682323 0.90925819 5590339
0.38609314 -1.5696564 0.90859145 5590597
0.38344008 -1.5712073 0.90786541 5656390
0.38090456 -1.573283 0.90689379 5787977
0.37836188 -1.5753636 0.90591973 5656133
0.37581193 -1.5774485 0.9049437 5721927
0.37342018 -1.5802581 0.90362841 5524546
0.37103611 -1.5831509 0.90227425 5524288
0.3686524 -1.5860958 0.9008956 5458494
0.36649728 -1.5901153 0.89901388 5260600
0.36432987 -1.5941515 0.89712441 5063220
0.36241579 -1.5994138 0.89466089 4931118
0.36061674 -1.6053004 0.89190513 4733737
0.35957307 -1.614797 0.88745952 4733480
0.46130896 -1.5882396 0.89651835 8349770
0.45629919 -1.5813693 0.89974958 7824198
0.45190191 -1.5765769 0.90200359 7495235
0.44795483 -1.5733267 0.90353227 7166785
0.44411939 -1.5704316 0.90489393 6903616
0.44056791 -1.5685251 0.90579069 6377528
0.43702465 -1.5666207 0.90668631 5983029
0.43363118 -1.5652399 0.90733576 5588529
0.43034494 -1.5642364 0.90780777 5259565
0.42706341 -1.5632355 0.90827847 4996908
0.42386681 -1.5625393 0.90860593 6117458
0.42077458 -1.5622284 0.90875214 6249303
0.41768372 -1.5619179 0.90889817 6249817
0.41459417 -1.5616078 0.90904397 6315612
0.41165459 -1.5618747 0.90891844 6249561
0.40871847 -1.5621594 0.90878463 6183509
0.40578085 -1.5624428 0.90865135 5195322
0.40288651 -1.5629023 0.90843517 4536361
0.40008622 -1.5637457 0.9080385 4404517
0.39728278 -1.56459 0.90764141 4536103
0.39447635 -1.5654359 0.90724355 4536103
0.39175522 -1.5666451 0.90667474 4601894
0.3890807 -1.5680674 0.90600586 4733480
0.38640124 -1.5694926 0.90533561 4733738
0.3837288 -1.570971 0.9046402 4733739
0.38119161 -1.573048 0.90366328 4799274
0.37864733 -1.5751302 0.90268403 4601895
0.37609577 -1.5772165 0.90170276 4733481
0.37368238 -1.5799401 0.90042186 4733481
0.371297 -1.582834 0.89906067 4733737
0.3689034 -1.5857427 0.89769262 4733738
0.3667292 -1.5896832 0.89583933 4667689
0.36456102 -1.5937212 0.89394015 4733739
0.36260492 -1.5987966 0.89155293 4733481
0.36080533 -1.6046833 0.88878429 4667430
0.35967499 -1.6137776 0.884507 4799531
0.46221703 -1.5899484 0.89233065 8349512
0.45693469 -1.5821468 0.89601713 7757891
0.45243657 -1.5770173 0.89844096 7429184
0.44848347 -1.5737618 0.89997923 7034684
0.44459319 -1.5706859 0.90143275 6640185
0.44103718 -1.568777 0.90233481 6311479
0.43748939 -1.5668705 0.90323567 5916977
0.43405986 -1.5653707 0.90394437 5522478
0.43076992 -1.5643661 0.90441906 5259565
0.42748469 -1.563364 0.90489256 4996394
0.42426121 -1.562579 0.90526342 5919821
0.42116582 -1.5622678 0.90541059 6249303
0.41807181 -1.5619569 0.90555739 6249559
0.41497916 -1.5616466 0.90570414 6315612
0.4120177 -1.5618397 0.90561283 6249817
0.40907884 -1.5621245 0.90547824 6183510
0.4061386 -1.5624082 0.90534419 5261374
0.40322465 -1.5628005 0.90515888 4404775
0.40042198 -1.5636445 0.90476 4404517
0.39761627 -1.5644896 0.90436065 4536103
0.39480758 -1.5653361 0.9039607 4601639
0.39206779 -1.5664791 0.90342063 4601895
0.3893913 -1.5679022 0.90274811 4667688
0.38670987 -1.5693285 0.90207416 4733481
0.38402343 -1.5707576 0.9013989 4667689
0.38147908 -1.5728128 0.9004277 4733481
0.37893325 -1.5748963 0.89944321 4536102
0.37637997 -1.5769839 0.89845675 4601895
0.37394494 -1.5796216 0.89721042 4667431
0.37155819 -1.5825169 0.89584231 4733481
0.36916333 -1.585427 0.89446712 4667688
0.36696142 -1.5892502 0.89266056 4667945
0.36479247 -1.5932903 0.89075148 4602408
0.36279416 -1.5981789 0.88844156 4667688
0.36099416 -1.6040654 0.88565999 4799272
0.35977709 -1.6127577 0.88155258 5062448
0.46312785 -1.5916609 0.88812733 8415561
0.4575721 -1.5829269 0.8922736 7757890
0.45297259 -1.5774586 0.89486957 7494976
0.44901341 -1.5741982 0.89641738 7100477
0.44507128 -1.5709522 0.89795834 6574392
0.44150746 -1.5690293 0.89887118 6311478
0.43795526 -1.5671208 0.89977723 6048821
0.43448943 -1.5655017 0.90054584 5588271
0.4311958 -1.564496 0.90102333 5325101
0.42790681 -1.5634927 0.90149963 5062186
0.42465633 -1.5626187 0.90191448 5722183
0.42155784 -1.5623072 0.90206242 6183510
0.41846067 -1.561996 0.90221018 6183766
0.41536492 -1.5616853 0.90235758 6315612
0.41238141 -1.5618044 0.90230113 6249817
0.40943992 -1.5620894 0.90216577 6183509
0.40649706 -1.5623736 0.90203089 5458754
0.40356332 -1.5626984 0.90187669 4536362
0.40075839 -1.5635432 0.90147567 4404518
0.39795041 -1.5643889 0.90107417 4536103
0.39513934 -1.5652361 0.90067196 4536102
0.39238089 -1.5663126 0.90016097 4601896
0.38970244 -1.5677369 0.89948481 4733738
0.38701904 -1.569164 0.89880723 4667688
0.38433057 -1.5705942 0.89812833 4667432
0.38176703 -1.5725771 0.89718693 4667688
0.37921953 -1.5746621 0.89619714 4536102
0.3766647 -1.5767511 0.89520544 4601894
0.37420797 -1.5793027 0.89399421 4667688
0.37181985 -1.582199 0.89261913 4667689
0.36942363 -1.5851109 0.89123678 4667945
0.36719394 -1.5888169 0.88947749 4733738
0.36502427 -1.5928589 0.88755858 4667688
0.36298364 -1.5975603 0.88532674 4667944
0.36118317 -1.603447 0.88253212 4865066
0.3598792 -1.6117373 0.87859654 5717043
0.46404135 -1.5933764 0.88390845 8744271
0.45821142 -1.5837094 0.88851905 7889221
0.45353472 -1.5779889 0.89124739 7494977
0.44954467 -1.5746356 0.89284658 7100733
0.44559652 -1.5713847 0.89439714 6705976
0.44197881 -1.5692824 0.89539975 6311478
0.43842214 -1.5673717 0.8963111 5982771
0.43491995 -1.5656332 0.89714026 5720115
0.43162262 -1.5646262 0.89762044 5391150
0.42832983 -1.5636216 0.89809966 5062443
0.42505223 -1.5626585 0.89855891 5590081
0.42195064 -1.5623467 0.89870769 6183509
0.41885036 -1.5620352 0.89885628 6183766
0.41575146 -1.5617242 0.89900458 6315869
0.41274583 -1.5617692 0.89898306 6249818
0.40980166 -1.5620545 0.89884704 6117973
0.40685618 -1.5623391 0.89871138 5590598
0.40390933 -1.5626228 0.89857596 4602156
0.40109539 -1.5634416 0.89818543 4470311
0.39828503 -1.564288 0.89778179 4536103
0.39547169 -1.565136 0.89737737 4536103
0.39269453 -1.5661457 0.89689577 4601896
0.39001411 -1.5675712 0.89621592 4667688
0.38732868 -1.5689994 0.89553475 4536102
0.38463825 -1.5704305 0.89485216 4601896
0.38205546 -1.572341 0.89394104 4733481
0.37950635 -1.5744276 0.89294589 4667688
0.37694979 -1.5765179 0.89194888 4667945
0.37447131 -1.5789831 0.89077318 4667946
0.37208188 -1.5818809 0.88939112 4601895
0.36968434 -1.5847943 0.88800156 4667688
0.36742681 -1.5883828 0.88629019 4667687
0.36525637 -1.5924269 0.88436133 4602152
0.36317337 -1.596941 0.88220841 4799275
0.36137241 -1.6028278 0.87940085 5588797
0.35998136 -1.610716 0.87563866 5970707
0.46495855 -1.5950991 0.87967211 9662808
0.45885259 -1.584494 0.88475353 8086855
0.45416635 -1.578761 0.88750041 7560769
0.4500773 -1.5750743 0.88926697 7166013
0.44612306 -1.5718182 0.89082706 6837562
0.44245124 -1.569536 0.89192057 6443064
0.43889004 -1.5676231 0.89283717 5916978
0.43535137 -1.5657648 0.89372748 5654064
0.43205023 -1.5647568 0.89421052 5325358
0.42875379 -1.5637509 0.89469254 5062185
0.42546189 -1.5627472 0.89517343 5392443
0.42234415 -1.5623863 0.89534628 6183510
0.41924071 -1.5620743 0.89549583 6249303
0.41613877 -1.5617632 0.89564496 6315612
0.41311097 -1.5617338 0.89565897 6249819
0.41016412 -1.5620193 0.89552212 6183766
0.40721589 -1.5623043 0.89538568 5854028
0.40426648 -1.5625883 0.89524949 4668206
0.40143299 -1.5633399 0.89488935 4536105
0.39862031 -1.564187 0.89448351 4536104
0.39580464 -1.5650356 0.89407694 4536103
0.39300871 -1.5659788 0.89362502 4536103
0.39032626 -1.5674051 0.89294153 4667689
0.38763887 -1.5688345 0.89225674 4733482
0.38494647 -1.5702666 0.89157045 4733482
0.38234437 -1.5721046 0.89068979 4667688
0.37979364 -1.5741928 0.88968933 4733737
0.37723541 -1.5762844 0.88868707 4733223
0.37473512 -1.5786631 0.88754731 4602151
0.37234432 -1.5815623 0.88615817 4667687
0.36994547 -1.5844772 0.88476157 4733481
0.36765999 -1.5879482 0.88309842 4733738
0.36548877 -1.5919943 0.88115978 4931118
0.36336333 -1.5963211 0.87908661 5720384
0.36156183 -1.6022079 0.876266 6037786
0.36008346 -1.6096935 0.87267923 6035215
0.3601892 -1.6246947 0.86549145 6039071
0.45949572 -1.585281 0.8809768 8481101
0.45479983 -1.5795356 0.88374245 7758147
0.45061123 -1.575514 0.88567835 7297855
0.44665092 -1.5722528 0.8872481 6837563
0.44292474 -1.5697901 0.88843358 6442806
0.43935901 -1.5678751 0.8893553 6048307
0.43580163 -1.5659626 0.89027601 5719856
0.43247885 -1.5648875 0.89079344 5456686
0.42917854 -1.5638803 0.89127827 5127979
0.42588294 -1.5628756 0.8917619 5260340
0.42273849 -1.562426 0.89197832 6117716
0.4196319 -1.5621136 0.89212871 6183510
0.41652679 -1.561802 0.89227867 6250076
0.41347677 -1.5616983 0.89232862 6250075
0.41052723 -1.5619843 0.89219093 6183767
0.40757638 -1.5622693 0.89205372 5986129
0.40462422 -1.5625539 0.89191675 4602670
0.40177119 -1.563238 0.8915875 4338981
0.39895618 -1.5640857 0.89117938 4338724
0.39613819 -1.564935 0.89077055 4404518
0.39332342 -1.5658114 0.89034879 4536102
0.39063901 -1.5672388 0.88966167 4601895
0.38794965 -1.5686692 0.88897312 4733224
0.38525522 -1.5701025 0.88828319 4667689
0.38263375 -1.5718678 0.88743347 4601895
0.38008136 -1.5739572 0.88642764 4601638
0.37752151 -1.5760505 0.88542008 4601638
0.37499928 -1.5783428 0.88431662 4601895
0.37260717 -1.5812434 0.88292038 4733225
0.37020695 -1.5841595 0.88151664 4865324
0.36789346 -1.587513 0.87990248 5391673
0.36572146 -1.5915612 0.87795383 5913138
0.36355346 -1.5957005 0.87596136 6038557
0.3617515 -1.6015872 0.8731277 6107692
0.36018556 -1.6086702 0.86971819 6034701
0.35992837 -1.621973 0.86331475 5973022
0.46014071 -1.5860704 0.87718904 9917506
0.45543522 -1.5803125 0.87997341 8349775
0.45114648 -1.5759546 0.88208079 7429442
0.44718003 -1.5726883 0.88366026 6969406
0.44339931 -1.5700449 0.8849386 6574392
0.43982905 -1.5681278 0.88586569 6114101
0.43626702 -1.5662125 0.88679188 5785650
0.4329083 -1.5650187 0.88736916 5456686
0.42960423 -1.5640101 0.8878569 5193772
0.42630494 -1.5630043 0.88834333 5062960
0.42313361 -1.5624657 0.88860375 6117715
0.42002386 -1.562153 0.88875496 6183510
0.4169156 -1.5618411 0.88890582 6249818
0.41384321 -1.561663 0.88899195 6184282
0.410891 -1.5619491 0.88885361 6052180
0.40793747 -1.5622345 0.88871551 5986131
0.40498263 -1.5625193 0.88857782 4339240
0.40211004 -1.563136 0.88827968 4273189
0.39929271 -1.5639844 0.8878693 4404517
0.39647233 -1.5648344 0.88745832 4535846
0.39364886 -1.5656854 0.88704681 4536103
0.39095229 -1.5670724 0.88637608 4601637
0.38826084 -1.5685036 0.88568395 4667687
0.38556445 -1.5699379 0.88499027 4667687
0.38292354 -1.5716307 0.88417178 4667689
0.38036948 -1.5737214 0.88316071 4601896
0.37780803 -1.5758162 0.88214773 4667432
0.37526387 -1.5780219 0.8810811 4865069
0.37287045 -1.5809243 0.87967765 5457467
0.37046885 -1.5838414 0.87826687 5914938
0.36812729 -1.5870773 0.87670219 5970707
0.36595452 -1.5911273 0.87474358 6034702
0.36376929 -1.5951946 0.87277675 6107692
0.36194134 -1.6009659 0.86998588 6107177
0.36028773 -1.6076463 0.86675537 6034444
0.35966814 -1.6192567 0.86114079 5777957
0.46103048 -1.5877129 0.87297678 10301474
0.45607239 -1.5810915 0.8761934 9654338
0.4516831 -1.5763965 0.87847424 8480083
0.44771057 -1.5731252 0.88006341 7429703
0.44387496 -1.5703003 0.88143581 6706235
0.44030017 -1.568381 0.88236821 6311736
0.43673354 -1.5664632 0.88329983 5851443
0.43333864 -1.56515 0.88393784 5522479
0.43003082 -1.5641401 0.88442838 5259565
0.42672777 -1.5631331 0.88491762 5062958
0.42352945 -1.5625055 0.88522249 6117716
0.42041659 -1.5621924 0.88537455 6183766
0.41730517 -1.5618802 0.88552624 6249561
0.41421044 -1.5616275 0.88564909 6250075
0.41125548 -1.5619137 0.88551003 6183767
0.40829927 -1.5621996 0.88537109 6117717
0.40534174 -1.5624846 0.88523263 4865586
0.40244943 -1.5630337 0.8849659 4470568
0.39962977 -1.5638828 0.88455337 4470567
0.39680707 -1.5647335 0.88414013 4536360
0.39398122 -1.5655851 0.88372642 4536103
0.39126605 -1.5669055 0.88308501 4470309
0.38857269 -1.5683379 0.88238913 4601896
0.38587421 -1.5697732 0.88169181 4667432
0.38321382 -1.571393 0.88090491 4865070
0.38065815 -1.5734853 0.87988853 5260087
0.37809503 -1.5755814 0.87887019 5719356
0.37552881 -1.5777005 0.87784076 5978160
0.37313408 -1.5806043 0.87643009 6038300
0.37073112 -1.5835229 0.87501222 6104093
0.36836135 -1.5866407 0.87349761 6034187
0.36618787 -1.590693 0.87152892 6034443
0.36400181 -1.5947618 0.86955231 6036243
0.36213142 -1.6003439 0.86684054 6108463
0.36038995 -1.6066216 0.86379075 6034700
0.35940862 -1.6165458 0.85896963 5382174
0.46194381 -1.5894315 0.86871338 10563875
0.45671153 -1.5818729 0.87240219 9989989
0.45222104 -1.5768394 0.87485868 9254187
0.44824237 -1.5735631 0.87645763 8667188
0.44435167 -1.5705562 0.8779251 7820614
0.44077229 -1.5686346 0.87886286 7099716
0.43720108 -1.5667145 0.87979996 6508862
0.43376988 -1.5652816 0.88049924 5851446
0.43045831 -1.5642705 0.88099265 5456945
0.4271515 -1.5632622 0.88148469 5128236
0.42392612 -1.5625454 0.88183457 6117715
0.4208101 -1.562232 0.88198745 6249303
0.41769546 -1.5619193 0.8821401 6249561
0.41458219 -1.561607 0.88229257 6315612
0.41162062 -1.5618784 0.88216007 6249561
0.40866178 -1.5621648 0.88202035 6249303
0.40570152 -1.5624499 0.88188118 5129530
0.40278941 -1.5629312 0.88164628 4667691
0.39996743 -1.5637811 0.88123149 4733742
0.39714241 -1.5646323 0.8808161 4799792
0.39431423 -1.5654846 0.88040006 4865586
0.39158034 -1.5667382 0.87978828 5260346
0.38888496 -1.5681717 0.87908876 5654078
0.38618457 -1.5696082 0.87838763 5849145
0.38350457 -1.5711552 0.8776328 5976363
0.38094723 -1.5732486 0.87661105 5970964
0.3783825 -1.5753465 0.87558734 5968651
0.3758105 -1.5774492 0.87456107 6104351
0.37339818 -1.580284 0.87317759 6108978
0.37099385 -1.5832039 0.87175262 6106406
0.36859584 -1.5862038 0.87028861 6034700
0.36642158 -1.5902581 0.86830997 6033415
0.36423463 -1.5943285 0.86632353 6035471
0.36232173 -1.5997213 0.86369163 6174512
0.36050689 -1.605664 0.86079144 5968137
0.35950476 -1.615487 0.8559975 5122860
0.46286088 -1.5911573 0.86443222 10628640
0.45735246 -1.5826566 0.86859983 10050898
0.45276034 -1.5772835 0.87123406 9461334
0.44877553 -1.574002 0.87284279 8725273
0.4448294 -1.5708126 0.87440646 8266264
0.44124544 -1.5688887 0.8753497 7809309
0.43766963 -1.5669663 0.87629217 7354413
0.43420208 -1.5654134 0.87705344 6897974
0.43088663 -1.5644011 0.87754971 6439737
0.42757612 -1.5633917 0.87804461 5981498
0.42432362 -1.5625854 0.8784399 6050123
0.42120439 -1.5622718 0.87859368 6183510
0.41808659 -1.5619587 0.87874711 6249303
0.41497016 -1.561646 0.87890047 6315612
0.41198647 -1.5618429 0.87880391 6249817
0.40902495 -1.5621297 0.8786633 6249302
0.40606195 -1.5624151 0.87852341 6051151
0.40313005 -1.5628285 0.87832063 6047553
0.40030575 -1.5636791 0.87790364 6044726
0.39747834 -1.5645311 0.87748599 6041127
0.39464784 -1.5653843 0.87706774 6039070
0.39189523 -1.5665709 0.87648594 6036500
0.38919783 -1.5680054 0.87578273 6033931
0.38649541 -1.569443 0.8750779 6033930
0.38379586 -1.5709169 0.87435532 6033673
0.38123679 -1.5730116 0.87332827 6033673
0.37867039 -1.5751108 0.87229919 6034444
0.37609679 -1.5772153 0.8712675 6176570
0.37366265 -1.5799633 0.86992019 6174771
0.37125689 -1.5828844 0.86848807 6104607
0.36884236 -1.5858185 0.86704963 6035729
0.36665553 -1.5898225 0.86508662 6033672
0.36446774 -1.5938946 0.86309028 6034957
0.36251235 -1.5990984 0.86053902 6107691
0.36069709 -1.6050416 0.85762537 5840667
0.3596077 -1.6144587 0.85300845 2563890
0.4637807 -1.5928866 0.86013508 10697262
0.45799565 -1.5834435 0.86478573 10116435
0.45330095 -1.5777286 0.86760026 9528411
0.44931 -1.574442 0.86921889 8858657
0.44533628 -1.5711701 0.87083036 8328972
0.44171965 -1.5691431 0.87182862 7936013
0.43813932 -1.5672187 0.87277639 7477261
0.43463516 -1.5655457 0.87360036 7083788
0.4313159 -1.564532 0.87409961 6690831
0.42800158 -1.5635215 0.87459731 6298386
0.42472184 -1.5626254 0.87503856 6106663
0.42159945 -1.5623115 0.87519318 6181711
0.41847849 -1.561998 0.87534755 6183509
0.4153589 -1.561685 0.87550175 6315612
0.41235298 -1.5618075 0.87544137 6249561
0.40938878 -1.5620947 0.87529999 6183510
0.40642309 -1.5623803 0.87515932 6180425
0.40347129 -1.5627258 0.87498915 6039071
0.4006446 -1.5635771 0.87456989 6033930
0.39781487 -1.5644296 0.87414998 6033673
0.39498204 -1.5652835 0.87372947 6033930
0.3922106 -1.5664033 0.87317801 6033674
0.38951123 -1.5678387 0.87247097 6033673
0.38680673 -1.5692774 0.87176251 6033673
0.38409716 -1.5707186 0.87105262 6033674
0.38152683 -1.5727744 0.8700403 6033416
0.37895882 -1.5748751 0.86900562 5967879
0.37638348 -1.5769808 0.86796862 6038299
0.37392747 -1.5796421 0.86665797 6109234
0.3715204 -1.5825645 0.86521864 6177854
0.36910456 -1.5855001 0.86377287 6106664
0.36688983 -1.5893862 0.86185896 5968137
0.36470115 -1.5934601 0.85985261 5968394
0.36270326 -1.5984751 0.85738271 5842465
0.36088753 -1.6044185 0.85445565 4272699
0.35971063 -1.6134297 0.85001767 1052205
0.46470332 -1.5946194 0.85582179 9261395
0.45864069 -1.584233 0.86096025 10179914
0.45392507 -1.5784655 0.8638137 9591119
0.44984579 -1.5748832 0.86558598 8922908
0.44586593 -1.5716062 0.86720717 8395021
0.44219494 -1.5693984 0.86829948 7935756
0.43861002 -1.5674717 0.86925274 7541770
0.43506914 -1.5656781 0.87014002 7083275
0.43174613 -1.5646633 0.87064207 6755595
0.42842799 -1.5636516 0.87114269 6362122
0.42512083 -1.5626655 0.87163043 6104093
0.42199534 -1.5623512 0.87178594 6180168
0.41887116 -1.5620375 0.87194121 6249045
0.41574836 -1.5617241 0.87209624 6315869
0.4127202 -1.561772 0.87207252 6315354
0.40975332 -1.5620594 0.8719303 6314839
0.40678489 -1.5623454 0.87178886 6312525
0.40381533 -1.5626315 0.8716473 6172199
0.40098417 -1.5634749 0.87123007 6034186
0.39815205 -1.5643281 0.87080795 6033673
0.39531678 -1.5651826 0.87038517 5968136
0.39252657 -1.5662353 0.8698644 6033416
0.38982517 -1.5676718 0.86915368 6033673
0.3871187 -1.5691115 0.8684414 5967880
0.38440704 -1.5705539 0.86772782 5967881
0.38181734 -1.5725366 0.8667469 5967623
0.37924767 -1.5746388 0.86570686 5967881
0.37667066 -1.576746 0.86466438 6034445
0.37419277 -1.5793203 0.86339074 6035988
0.37178427 -1.582244 0.86194432 6176570
0.36936706 -1.5851812 0.8604911 6038043
0.36712432 -1.5889491 0.85862708 5903886
0.36493492 -1.5930251 0.8566106 5845036
0.36289436 -1.5978513 0.85422283 4075579
0.3610782 -1.6037947 0.85128242 1117484
0.35981369 -1.6124002 0.84702498 1643826
0.45928776 -1.5850248 0.85712349 9917516
0.45456237 -1.5792447 0.85999614 9585721
0.45038301 -1.5753255 0.86194378 8991273
0.44639695 -1.5720434 0.86357498 8460558
0.4426713 -1.569654 0.86476249 8001292
0.43908179 -1.5677251 0.86572111 7607819
0.43550402 -1.5658108 0.86667252 7148811
0.43217725 -1.5647949 0.86717731 6821131
0.4288553 -1.5637817 0.86768085 6427658
0.42553788 -1.5627704 0.86818349 6103064
0.42239195 -1.5623912 0.8683719 6244418
0.41926461 -1.562077 0.86852807 6249046
0.41613865 -1.5617633 0.86868399 6315613
0.41308814 -1.5617365 0.86869735 6249561
0.41011852 -1.5620241 0.86855435 6183510
0.40714735 -1.5623105 0.86841208 6181711
0.4041751 -1.5625968 0.86826974 6107434
0.40132421 -1.5633724 0.86788428 5968136
0.39848977 -1.5642263 0.86745995 5967880
0.39565217 -1.5650815 0.86703497 6033673
0.39284301 -1.566067 0.86654514 6033416
0.39013958 -1.5675046 0.86583066 5967623
0.38743109 -1.5689454 0.86511463 5967624
0.38471746 -1.5703889 0.86439723 5968137
0.38210827 -1.5722984 0.8634482 5967881
0.37953699 -1.5744022 0.86240274 5968393
0.37695825 -1.5765107 0.86135483 6106407
0.37445843 -1.5789981 0.86011869 6110520
0.37204856 -1.581923 0.85866499 6041127
0.36963004 -1.584862 0.85720444 5974822
0.36735916 -1.5885113 0.85539073 5389116
0.36516899 -1.5925894 0.85336405 3156025
0.36308575 -1.5972267 0.85105938 1117484
0.36126906 -1.6031702 0.84810555 1314862
0.35991675 -1.6113698 0.84403056 1578802
0.45993662 -1.5858189 0.85327536 5785954
0.45520157 -1.5800261 0.8561672 9066067
0.45092148 -1.5757688 0.85829258 8995384
0.44692934 -1.5724816 0.85993367 8461585
0.44314873 -1.5699103 0.86121738 8066827
0.43955469 -1.5679793 0.86218137 7607819
0.43596923 -1.5660515 0.8631438 7214603
0.43260926 -1.5649267 0.86370528 6821131
0.4292835 -1.5639123 0.86421174 6493451
0.42596233 -1.5628997 0.86471725 6101779
0.42278934 -1.5624311 0.86495125 6177084
0.41965884 -1.5621166 0.86510813 6248789
0.41652966 -1.5618025 0.86526495 6315612
0.41345674 -1.5617007 0.86531579 6249561
0.41048443 -1.5619888 0.86517197 6183509
0.40751052 -1.5622754 0.86502898 6182482
0.40453553 -1.562562 0.86488581 6108719
0.40166497 -1.5632697 0.86453253 5968136
0.39882815 -1.5641242 0.86410588 5967623
0.39598817 -1.5649803 0.86367857 5967879
0.39316005 -1.5658984 0.86322016 5967880
0.39045459 -1.5673372 0.86250198 5967881
0.38774407 -1.568779 0.86178219 5967881
0.38502842 -1.5702236 0.86106098 5902345
0.38239974 -1.5720599 0.8601442 5968138
0.37982672 -1.5741652 0.85909325 5969165
0.37724638 -1.5762752 0.85803986 5906972
0.37472445 -1.5786753 0.85684156 5977393
0.3723132 -1.5816016 0.85538077 5520960
0.36989337 -1.584542 0.85391271 4142143
0.36759436 -1.588073 0.85215008 1512238
0.36540341 -1.5921531 0.85011321 789034
0.36327726 -1.5966015 0.8478924 1249582
0.36146015 -1.6025449 0.84492517 2105142
0.36001986 -1.6103389 0.84103423 1710131
0.36037886 -1.6266626 0.83288503 1183534
0.46074849 -1.5871793 0.8491329 1972555
0.45584261 -1.58081 0.85232705 3352911
0.45146137 -1.5762134 0.85463208 7560546
0.44746304 -1.5729212 0.85628313 8408134
0.44362724 -1.5701672 0.85766423 8072227
0.44002855 -1.568234 0.8586337 7610133
0.4364385 -1.5663037 0.85960168 7215375
0.43304217 -1.5650588 0.86022598 6886925
0.42971259 -1.564043 0.86073536 6493452
0.42638761 -1.5630294 0.86124367 6166544
0.42318761 -1.5624713 0.86152363 6110005
0.42005384 -1.5621563 0.86168146 6182995
0.4169215 -1.561842 0.86183912 6249818
0.41382605 -1.5616649 0.86192793 6249562
0.41085094 -1.5619533 0.86178333 6183509
0.40787441 -1.5622404 0.86163938 6183253
0.40489662 -1.5625272 0.86149555 6110262
0.40200627 -1.5631669 0.8611747 6034444
0.39916706 -1.5640221 0.86074585 5968394
0.39632475 -1.5648787 0.86031628 6034187
0.39347929 -1.5657364 0.85988617 6034187
0.39077014 -1.5671694 0.85916752 5968908
0.38805759 -1.5686122 0.85844398 5904658
0.38533992 -1.570058 0.857719 5971994
0.38269162 -1.5718211 0.85683477 5975337
0.380117 -1.5739279 0.85577822 5584953
0.37753493 -1.5760392 0.85471952 4930369
0.37499094 -1.5783522 0.85355961 3814207
0.37257826 -1.5812796 0.85209149 1775408
0.37015712 -1.5842218 0.85061604 1051692
0.36782986 -1.587634 0.84890491 854827
0.36563808 -1.5917162 0.84685779 1315631
0.36346906 -1.5959755 0.84472185 2368055
0.36165142 -1.6019191 0.8417412 1578032
0.3601231 -1.6093074 0.83803612 1841972
0.36011529 -1.6239125 0.83071196 1051949
0.461667 -1.588908 0.84479219 3487068
0.45648557 -1.5815961 0.84847552 1578566
0.45200264 -1.5766592 0.8509624 1446720
0.44799805 -1.5733618 0.85262346 3156296
0.44410688 -1.5704246 0.85410297 5982292
0.4405036 -1.5684893 0.85507792 6769485
0.43690884 -1.5665563 0.85605156 6897724
0.43347603 -1.5651913 0.85673922 6894637
0.43014258 -1.5641742 0.85725158 6564129
0.42681384 -1.5631593 0.85776275 6169115
0.42358655 -1.5625113 0.85808921 6110262
0.42044961 -1.562196 0.85824805 6183253
0.41731411 -1.5618814 0.85840654 6249818
0.41419601 -1.5616292 0.85853362 6250075
0.41121823 -1.5619177 0.85838825 6249303
0.40823895 -1.5622052 0.85824347 6249046
0.40525842 -1.5624924 0.8580988 6178626
0.40234822 -1.5630639 0.85781091 6104352
0.39950669 -1.5639197 0.85737979 6039329
0.396662 -1.5647771 0.85694784 6106922
0.39381409 -1.5656354 0.85651541 5911344
0.39108622 -1.5670013 0.85582739 5650488
0.38837165 -1.5684452 0.85510015 5323839
0.38565195 -1.5698919 0.85437131 4470591
0.38298404 -1.5715818 0.85352004 3419708
0.38040775 -1.5736902 0.852458 1972786
0.37782395 -1.5758027 0.85139382 986667
0.37525779 -1.5780286 0.8502726 855082
0.37284374 -1.5809573 0.84879732 789290
0.37042129 -1.583901 0.84731442 1118510
0.36806566 -1.5871946 0.84565532 2434362
0.36587316 -1.5912787 0.84359795 1380654
0.36366844 -1.5953822 0.84153086 1446703
0.36184293 -1.6012923 0.83855367 1381168
0.36022633 -1.6082749 0.83503622 1578289
0.35985208 -1.6211665 0.82854229 1051692
0.46258944 -1.5906438 0.8404333 2960216
0.45713043 -1.5823845 0.84461254 3289943
0.45254529 -1.577106 0.84728342 1973574
0.44853443 -1.5738032 0.84895462 1183548
0.44458759 -1.5706826 0.8505336 1380410
0.44097966 -1.5687451 0.85151404 1774906
0.43738019 -1.5668097 0.85249335 2695742
0.43391079 -1.5653238 0.85324514 3879750
0.43057352 -1.5643055 0.85376042 4470853
0.42724097 -1.5632895 0.85427457 4865091
0.42398638 -1.5625515 0.85464799 5589322
0.42084622 -1.5622358 0.85480767 6117717
0.41770744 -1.5619209 0.85496706 6249561
0.41457003 -1.561606 0.85512638 6315612
0.41158617 -1.561882 0.85498667 6249561
0.40860415 -1.5621698 0.85484111 6249303
0.40562093 -1.5624573 0.85469568 5919570
0.40269083 -1.5629606 0.85444099 4800326
0.39984685 -1.5638171 0.8540076 4076351
0.39699978 -1.5646752 0.85357338 3485245
0.39414954 -1.5655344 0.85313863 2893626
0.39140284 -1.566833 0.85248154 1972787
0.38868624 -1.5682778 0.85175043 1249838
0.38596445 -1.5697258 0.85101783 920875
0.38327688 -1.5713421 0.85019988 855082
0.38069898 -1.5734519 0.84913236 789547
0.37811345 -1.5755661 0.84806263 986668
0.37552506 -1.5777044 0.84698057 1842228
0.37310958 -1.5806342 0.84549809 1118252
0.37068582 -1.5835798 0.84400767 1644850
0.36830181 -1.5867543 0.84240133 2302263
0.36610854 -1.5908407 0.8403337 1117996
0.36390293 -1.5949459 0.83825648 1578545
0.36203462 -1.6006651 0.83536249 2104886
0.36032945 -1.6072413 0.83203495 1051692
0.3595894 -1.6184251 0.82637584 920107
0.46351576 -1.592387 0.83605605 3487070
0.4577772 -1.5831752 0.84073806 2565968
0.45308924 -1.5775539 0.84359521 3684951
0.44907218 -1.5742459 0.84527647 2500426
0.44507253 -1.5709527 0.84695035 2038850
0.44145685 -1.5690014 0.84794211 1446458
0.43785268 -1.5670636 0.84892702 1117492
0.4343465 -1.5654569 0.84974372 920112
0.4310053 -1.5644372 0.85026193 854573
0.42766899 -1.5634201 0.850779 920364
0.42438698 -1.5625918 0.85119987 2236214
0.42124361 -1.5622758 0.8513605 5920596
0.41810167 -1.5619605 0.85152078 6183768
0.41496098 -1.5616453 0.85168099 6315613
0.41195482 -1.5618465 0.85157871 6249561
0.40897006 -1.5621345 0.85143232 6183511
0.40598404 -1.5624223 0.85128605 4999245
0.40303397 -1.5628572 0.85106504 1841203
0.40018767 -1.5637144 0.85062927 920363
0.39733821 -1.5645733 0.85019279 789034
0.39448559 -1.565433 0.84975582 789034
0.39172 -1.5666643 0.84912992 789034
0.38900137 -1.5681103 0.84839505 723497
0.38627756 -1.5695592 0.84765863 1052717
0.38357025 -1.571102 0.84687442 1710899
0.38099062 -1.5732135 0.84580129 986668
0.37840343 -1.5753289 0.84472609 1842228
0.37580907 -1.57745 0.84364796 2960445
0.37337589 -1.5803108 0.8421939 1315631
0.37095082 -1.583258 0.84069598 1250095
0.36853826 -1.5863135 0.83914292 1315374
0.36634415 -1.5904019 0.83706498 2170935
0.36413771 -1.5945086 0.83497757 1512752
0.36222661 -1.6000371 0.83216774 1249326
0.36043262 -1.6062069 0.82903183 788778
0.35943526 -1.61619 0.82395774 657449
0.46444476 -1.5941333 0.83166242 2169938
0.458426 -1.5839685 0.83685195 3881822
0.45368063 -1.578166 0.83981436 2500429
0.44961125 -1.5746899 0.84158903 2697803
0.44560546 -1.5713915 0.84327298 4144469
0.44193506 -1.5692585 0.84436196 3683919
0.43832624 -1.5673181 0.84535253 2894918
0.4347831 -1.5655901 0.8462348 1118003
0.43143803 -1.5645691 0.84675604 723244
0.42809784 -1.5635507 0.84727597 657705
0.42478836 -1.5626322 0.84774494 1907506
0.42164171 -1.5623158 0.84790647 5394256
0.41849661 -1.5620002 0.84806758 6117975
0.41535276 -1.5616846 0.84822869 6315869
0.41232419 -1.5618107 0.84816432 6184025
0.40933669 -1.5620991 0.84801704 6117974
0.40634793 -1.5623871 0.84787005 4933708
0.40337777 -1.5627536 0.84768295 1907507
0.40052909 -1.5636115 0.84724486 723242
0.39767724 -1.5644711 0.84680611 854827
0.39482224 -1.5653316 0.84636676 854827
0.39203769 -1.5664953 0.84577262 789034
0.38931704 -1.5679425 0.84503382 789034
0.3865912 -1.5693924 0.84429353 1842228
0.38386405 -1.5708616 0.84354347 2236983
0.38128275 -1.5729744 0.8424648 1184046
0.37869388 -1.5750912 0.84138405 1118253
0.3760978 -1.5772139 0.84030038 1447216
0.37364256 -1.579987 0.83888459 789035
0.37121612 -1.5829357 0.83737928 3289665
0.36878031 -1.5858958 0.835868 1644337
0.36658019 -1.5899626 0.83379173 1643825
0.36437279 -1.594071 0.83169425 788778
0.36241871 -1.5994083 0.82896942 722985
0.36058694 -1.6054064 0.82590711 657449
0.35953909 -1.6151522 0.82093149 657449
0.46642685 -1.599545 0.82537448 3616601
0.45907694 -1.5847652 0.83295375 2433615
0.4543218 -1.5789498 0.83593589 3026770
0.45015168 -1.5751348 0.83789229 987197
0.44613963 -1.5718312 0.83958644 1381436
0.4424144 -1.5695159 0.8407737 2499651
0.43880087 -1.5675733 0.84176999 2565698
0.4352206 -1.5657235 0.84271848 1250358
0.43187171 -1.5647013 0.84324276 591659
0.42852771 -1.5636818 0.8437655 723242
0.42519057 -1.5626725 0.8442831 1775922
0.4220407 -1.5623559 0.84444547 4868172
