# .PCD v0.7 - Point Cloud Data file format
VERSION 0.7
FIELDS x y z rgb
SIZE 4 4 4 4
TYPE F F F U
COUNT 1 1 1 1
WIDTH 1148
HEIGHT 1
VIEWPOINT 0 0 0 1 0 0 0
POINTS 1148
DATA ascii
0.64287561 -1.8909788 0.85281509 12632007
0.6392976 -1.8909804 0.85281444 12237249
0.63571984 -1.8909829 0.85281342 12105663
0.63214225 -1.8909857 0.85281217 11974077
0.62856412 -1.8909869 0.85281169 11974077
0.62498587 -1.8909878 0.85281134 11974077
0.62140852 -1.8909914 0.85280979 11974077
0.61783212 -1.8909981 0.85280704 11974077
0.61425459 -1.8910015 0.85280567 11974077
0.6106779 -1.8910073 0.85280323 11974077
0.60710084 -1.8910121 0.8528012 12434627
0.60352373 -1.8910168 0.8527993 13947864
0.59880042 -1.8873703 0.85431886 16777215
0.59522849 -1.8873693 0.85431933 16777215
0.61070716 -1.9488134 0.82871389 11711154
0.60741788 -1.9501173 0.82817054 11711154
0.60412419 -1.9514233 0.82762629 11711154
0.60082597 -1.9527309 0.82708132 11711154
0.59752315 -1.9540401 0.82653576 11711154
0.59421581 -1.9553512 0.82598937 11711154
0.59090388 -1.9566642 0.82544225 11711154
0.58758748 -1.9579791 0.82489425 11711154
0.58426642 -1.9592959 0.82434559 11711154
0.58094072 -1.9606138 0.82379627 11711154
0.57761055 -1.9619343 0.823246 11711154
0.57427561 -1.9632561 0.8226952 11711154
0.7267192 -1.8932843 0.84799045 16777215
0.72262633 -1.8919528 0.84854823 16777215
0.71867758 -1.8909882 0.84895217 16777215
0.71475261 -1.890077 0.84933376 16777215
0.71083051 -1.8891639 0.84971625 16777215
0.70691335 -1.8882544 0.85009712 16777215
0.70300078 -1.8873479 0.8504768 16777215
0.69909209 -1.8864423 0.85085607 16777215
0.69518721 -1.8855376 0.85123497 16777215
0.69128621 -1.8846339 0.85161352 16777215
0.68738908 -1.8837309 0.85199165 16777215
0.68349576 -1.882829 0.85236943 16777215
0.67960268 -1.8819178 0.85275102 16777215
0.67737532 -1.8856622 0.85118282 10592675
0.67437661 -1.8872755 0.85050714 16777215
0.66816902 -1.8798198 0.85362977 16777215
0.66438979 -1.8791959 0.85389102 16777215
0.66061461 -1.8785766 0.85415041 16777215
0.65688711 -1.878088 0.8543551 16777215
0.65333253 -1.8780942 0.85435247 16777215
0.65036249 -1.8798029 0.8536368 11711154
0.64746815 -1.8817526 0.85282022 13487314
0.64390504 -1.8817551 0.8528192 12697799
0.64034206 -1.881758 0.85281801 12171456
0.63677925 -1.8817612 0.85281664 11908284
0.63321483 -1.8817599 0.85281718 11842491
0.62965149 -1.8817616 0.85281646 11908284
0.62608874 -1.8817651 0.85281497 11974077
0.62252617 -1.8817695 0.85281312 11974077
0.61896521 -1.8817786 0.85280931 11974077
0.61540157 -1.8817797 0.85280889 11974077
0.61183912 -1.8817844 0.85280693 11974077
0.60827714 -1.8817905 0.8528043 11974077
0.60471463 -1.8817952 0.8528024 11974077
0.60115206 -1.8817999 0.85280037 13290191
0.59644777 -1.8781708 0.85432041 14540253
0.59289128 -1.8781723 0.85431969 16777215
0.6111961 -1.9486196 0.8248148 11711154
0.60790449 -1.9499246 0.82426828 11711154
0.60460842 -1.9512315 0.82372093 11711154
0.60130775 -1.9525398 0.82317293 11711154
0.59800255 -1.9538503 0.82262409 11711154
0.59469277 -1.9551624 0.82207459 11711154
0.59137845 -1.9564763 0.82152426 11711154
0.58805954 -1.957792 0.82097316 11711154
0.58473599 -1.9591095 0.8204214 11711154
0.58140785 -1.9604288 0.81986886 11711154
0.57807511 -1.9617498 0.81931561 11711154
0.57473773 -1.9630725 0.81876159 11711154
0.57139581 -1.9643973 0.81820673 11711154
0.72722888 -1.8835658 0.84821022 16777215
0.72328538 -1.8825917 0.84862018 16777215
0.71934605 -1.8816187 0.84902978 16777215
0.71541405 -1.8806551 0.84943533 16777215
0.71150911 -1.8797534 0.84981501 16777215
0.70760804 -1.8788524 0.85019416 16777215
0.70371073 -1.8779523 0.85057306 16777215
0.69981736 -1.8770533 0.85095155 16777215
0.69592774 -1.8761548 0.85132962 16777215
0.69204199 -1.8752575 0.85170728 16777215
0.68816006 -1.874361 0.85208464 16777215
0.68428189 -1.8734653 0.8524617 16777215
0.68085247 -1.8738022 0.8523199 10066332
0.67901546 -1.8785746 0.85031104 16777215
0.67520773 -1.8778845 0.85060155 16777215
0.66906023 -1.8706033 0.85366637 16777215
0.66530114 -1.8699991 0.8539207 16777215
0.66154563 -1.8693984 0.85417354 16777215
0.65785253 -1.8689696 0.85435414 16777215
0.65431225 -1.8689755 0.85435152 16777215
0.65186065 -1.8721311 0.85302329 11711154
0.64847511 -1.8726051 0.85282373 12566212
0.64492679 -1.8726084 0.85282236 11447732
0.64137775 -1.8726095 0.85282195 11118767
0.63782769 -1.8726078 0.85282266 10855594
0.63427913 -1.8726104 0.85282153 10658215
0.63073087 -1.8726139 0.8528201 10592422
0.62718266 -1.8726177 0.85281849 10789802
0.62363487 -1.8726226 0.8528164 11052974
0.62008911 -1.8726339 0.85281163 10987182
0.6165393 -1.872633 0.85281211 11381939
0.61299103 -1.8726368 0.85281044 11842491
0.60944384 -1.8726441 0.8528074 11974077
0.60589582 -1.8726487 0.85280544 11974077
0.60234779 -1.8726534 0.85280347 11974077
0.59879971 -1.8726579 0.85280156 12763592
0.59525162 -1.8726624 0.85279965 14211035
0.59057295 -1.86905 0.85432017 16777215
0.61168593 -1.9484255 0.82090926 11711154
0.60839194 -1.9497315 0.82035953 11711154
0.60499495 -1.950718 0.81994426 16777215
0.60129493 -1.9507232 0.81994212 16777215
0.59759498 -1.9507284 0.81993985 16777215
0.5938949 -1.9507335 0.81993777 16777215
0.59019494 -1.9507389 0.81993556 16777215
0.58649486 -1.9507439 0.8199333 16777215
0.58279449 -1.9507482 0.81993157 16777215
0.58187562 -1.9602426 0.81593519 16777215
0.57854044 -1.9615648 0.81537861 11711154
0.57520068 -1.9628888 0.8148213 11711154
0.57185614 -1.9642143 0.81426334 11711154
0.72789013 -1.8743342 0.84825754 16777215
0.72395456 -1.8733487 0.84867442 16777215
0.72002327 -1.8723642 0.84909093 16777215
0.71609908 -1.8713882 0.84950382 16777215
0.71218395 -1.8704261 0.84991074 16777215
0.70829582 -1.8695257 0.85029161 16777215
0.70441449 -1.868634 0.85066891 16777215
0.70053697 -1.8677433 0.85104573 16777215
0.6966632 -1.8668531 0.85142219 16777215
0.69281167 -1.866014 0.8517772 16777215
0.68896919 -1.8651906 0.85212553 16777215
0.68512803 -1.864362 0.85247606 16777215
0.6822598 -1.8662007 0.85169822 10329503
0.67988676 -1.8694286 0.85033274 16777215
0.67608935 -1.8687313 0.85062778 16777215
0.66999447 -1.8616029 0.85364318 16777215
0.66625601 -1.8610207 0.85388952 16777215
0.66251606 -1.8604277 0.8541404 16777215
0.65880638 -1.8599142 0.8543576 16777215
0.65527719 -1.859911 0.85435897 16777215
0.65267414 -1.8625693 0.85323441 11711154
0.64947438 -1.863533 0.85282677 12829383
0.64593887 -1.8635316 0.85282731 11513525
0.64240319 -1.86353 0.85282803 10000286
0.63886935 -1.8635334 0.8528266 8684424
0.63533545 -1.863537 0.85282511 7039597
0.63180155 -1.8635404 0.85282362 5328978
0.62826794 -1.8635448 0.85282177 5855322
0.6247353 -1.8635522 0.85281861 7434356
0.62120336 -1.8635617 0.85281456 8618632
0.61766785 -1.8635607 0.85281509 9210770
0.61413383 -1.8635639 0.85281366 10329251
0.61060071 -1.8635702 0.85281098 11447733
0.60706747 -1.8635761 0.85280859 11974077
0.6035338 -1.8635807 0.85280657 11974077
0.60000008 -1.8635852 0.85280466 11974077
0.59646642 -1.8635899 0.85280269 12237249
0.59293264 -1.8635944 0.85280073 13421777
0.58827281 -1.8599994 0.85432148 16777215
0.58474493 -1.8600005 0.85432106 16777215
0.60632163 -1.9412568 0.81994748 16777215
0.60263664 -1.9412619 0.81994534 16777215
0.59895164 -1.9412673 0.81994307 16777215
0.59526658 -1.9412723 0.81994092 16777215
0.59158152 -1.9412773 0.81993878 16777215
0.58789641 -1.9412825 0.81993663 16777215
0.58421105 -1.9412866 0.81993484 16777215
0.5805254 -1.9412899 0.81993347 16777215
0.57684052 -1.9412959 0.81993097 16777215
0.57900643 -1.9613791 0.81143522 11711154
0.57566416 -1.9627041 0.81087476 11711154
0.57231724 -1.9640307 0.81031346 11711154
0.72861326 -1.8653511 0.84823096 16777215
0.72468424 -1.8643517 0.84865588 16777215
0.72075957 -1.8633534 0.84908032 16777215
0.71683925 -1.8623561 0.84950423 16777215
0.71292323 -1.86136 0.84992772 16777215
0.70902586 -1.8604029 0.85033464 16777215
0.70517826 -1.8595678 0.85068971 16777215
0.70134145 -1.8587525 0.85103631 16777215
0.69751024 -1.8579437 0.85138011 16777215
0.69368559 -1.8571444 0.85171998 16777215
0.68986434 -1.8563454 0.8520596 16777215
0.68604648 -1.8555474 0.85239887 16777215
0.68304878 -1.8569827 0.85178864 10329503
0.68079776 -1.8604853 0.8502996 16777215
0.67701876 -1.8598042 0.85058916 16777215
0.67097503 -1.8528242 0.85355657 16777215
0.66724479 -1.8522298 0.8538093 16777215
0.66351795 -1.8516387 0.85406059 16777215
0.65979719 -1.8510581 0.85430741 16777215
0.65623719 -1.8509276 0.85436291 16777215
0.65272331 -1.8509274 0.85436308 16777215
0.65046316 -1.8545269 0.85283267 13224142
0.64694202 -1.8545259 0.85283315 12171198
0.64342242 -1.8545295 0.8528316 11381939
0.63990283 -1.8545331 0.85283017 10658216
0.63638324 -1.8545365 0.85282862 9276562
0.63286376 -1.8545405 0.85282689 7631478
0.62934446 -1.8545451 0.85282499 5986909
0.62582684 -1.8545547 0.85282087 5921116
0.62230861 -1.8545625 0.8528176 6908012
0.61878729 -1.8545612 0.85281813 7829116
0.6152674 -1.8545642 0.85281682 8552839
0.61174828 -1.8545694 0.85281456 9802907
0.6082297 -1.8545766 0.85281157 11184560
0.60471028 -1.8545814 0.85280961 11974077
0.60119087 -1.8545858 0.85280764 11974077
0.59767139 -1.8545903 0.85280573 11974077
0.59415185 -1.8545948 0.85280383 11974077
0.59063238 -1.8545994 0.85280192 13224142
0.58613676 -1.8514868 0.85412514 14869221
0.58247811 -1.851025 0.85432148 16777215
0.60396749 -1.931877 0.81994855 16777215
0.60029733 -1.931882 0.81994641 16777215
0.59662718 -1.931887 0.81994414 16777215
0.59295696 -1.9318922 0.81994206 16777215
0.58928674 -1.9318972 0.81993985 16777215
0.58561629 -1.9319016 0.819938 16777215
0.58194524 -1.9319041 0.81993699 16777215
0.57827485 -1.9319086 0.81993508 16777215
0.57460475 -1.9319144 0.81993258 16777215
0.57947326 -1.9611933 0.8074851 11711154
0.57612848 -1.9625192 0.80692148 11711154
0.57277912 -1.9638469 0.80635697 11711154
0.72936743 -1.8565335 0.84816444 16777215
0.72545791 -1.8555543 0.8485828 16777215
0.72156107 -1.8545979 0.84899145 16777215
0.71768385 -1.8536828 0.8493824 16777215
0.71382397 -1.8528035 0.84975809 16777215
0.70996779 -1.8519248 0.85013354 16777215
0.70611537 -1.8510472 0.85050845 16777215
0.70228004 -1.8502055 0.85086805 16777215
0.69846624 -1.8494126 0.85120684 16777215
0.69465584 -1.8486203 0.85154533 16777215
0.6908462 -1.8478216 0.85188657 16777215
0.68703181 -1.8470019 0.85223675 16777215
0.68322086 -1.8461828 0.85258675 16777215
0.68176055 -1.8517743 0.85019779 16777215
0.67799771 -1.8511041 0.85048413 16777215
0.67199117 -1.844233 0.85341978 16777215
0.66828662 -1.8436766 0.85365754 16777215
0.66458213 -1.8431139 0.85389793 16777215
0.66087759 -1.8425452 0.85414088 16777215
0.65719378 -1.8420286 0.85436159 16777215
0.65369236 -1.8420236 0.85436368 16777215
0.65144444 -1.8455946 0.8528381 11711154
0.64793903 -1.8455981 0.85283655 12566213
0.64443356 -1.8456014 0.85283506 11908284
0.64092809 -1.845605 0.85283363 11513269
0.63742256 -1.8456084 0.85283214 10921131
0.63391751 -1.845613 0.85283017 9605527
0.6304127 -1.8456187 0.85282779 7565942
0.62690967 -1.8456296 0.85282314 5657943
0.62340492 -1.8456355 0.85282058 4934220
0.61989778 -1.8456342 0.85282111 6315874
0.6163919 -1.8456368 0.85281998 8026751
0.61288661 -1.8456411 0.85281813 9211026
0.60938215 -1.8456483 0.85281509 9934493
0.60587728 -1.845654 0.85281265 10987438
0.60237199 -1.8456585 0.85281074 11842491
0.59886664 -1.8456631 0.85280877 11974077
0.59536123 -1.8456675 0.85280693 11974077
0.59185588 -1.845672 0.85280502 11974077
0.58835053 -1.8456765 0.85280305 12697799
0.58484507 -1.845681 0.8528012 14342621
0.58022904 -1.8421198 0.85432255 16777215
0.60163224 -1.9225724 0.81994957 16777215
0.5979768 -1.9225774 0.81994742 16777215
0.59432137 -1.9225824 0.81994522 16777215
0.59066594 -1.9225875 0.81994307 16777215
0.58701015 -1.9225917 0.81994128 16777215
0.58335388 -1.9225941 0.81994021 16777215
0.57969767 -1.9225969 0.81993902 16777215
0.57604235 -1.9226028 0.81993657 16777215
0.57238698 -1.9226084 0.81993413 16777215
0.56873155 -1.922614 0.81993175 16777215
0.57659364 -1.962334 0.80296153 11711154
0.57324171 -1.9636626 0.80239385 11711154
0.73030335 -1.8482611 0.84789395 16777215
0.72629386 -1.8469999 0.84843546 16777215
0.72244048 -1.8461262 0.84881055 16777215
0.71859074 -1.8452532 0.84918541 16777215
0.71474487 -1.8443812 0.84955984 16777215
0.71090263 -1.84351 0.84993386 16777215
0.70706415 -1.8426397 0.85030752 16777215
0.70322943 -1.8417702 0.85068083 16777215
0.69940448 -1.8409176 0.85104692 16777215
0.69560808 -1.840132 0.85138428 16777215
0.69181502 -1.8393471 0.85172123 16777215
0.68802524 -1.8385628 0.85205799 16777215
0.68424296 -1.8377907 0.85238957 16777215
0.68251204 -1.8425772 0.85033435 10526882
0.67901146 -1.8425868 0.85033035 16777215
0.67527324 -1.8419445 0.85060602 16777215
0.66934693 -1.8352609 0.85347575 16777215
0.66566139 -1.8347181 0.85370886 16777215
0.66198295 -1.8341889 0.85393596 16777215
0.65830672 -1.8336602 0.85416299 16777215
0.65465534 -1.8331959 0.85436237 16777215
0.65116936 -1.8331952 0.85436267 16777215
0.64892769 -1.8367406 0.85284036 14079706
0.64543658 -1.8367449 0.85283852 12632006
0.64194512 -1.8367485 0.85283709 11645111
0.6384539 -1.8367525 0.8528353 10789802
0.6349628 -1.8367571 0.85283333 10131871
0.63147277 -1.8367648 0.85282993 8750217
0.62798375 -1.8367757 0.85282534 7500149
0.62449247 -1.8367798 0.85282356 6250081
0.62099934 -1.8367786 0.85282409 5394771
0.6175074 -1.8367808 0.85282314 6842218
0.61401594 -1.8367847 0.85282147 8026494
0.61052543 -1.8367913 0.85281861 9210769
0.60703498 -1.8367983 0.85281563 10131871
0.60354364 -1.8368027 0.85281372 10987182
0.60005236 -1.8368073 0.85281181 11710905
0.59656101 -1.8368117 0.85280991 11974077
0.59306967 -1.8368161 0.852808 11974077
0.58957833 -1.8368205 0.85280609 11974077
0.58608693 -1.8368249 0.85280418 12303041
0.58259547 -1.8368293 0.85280228 13750485
0.57799739 -1.8332843 0.85432446 16777215
0.57451266 -1.833288 0.85432279 16777215
0.59567487 -1.9133472 0.81994843 16777215
0.59203398 -1.913352 0.81994629 16777215
0.58839291 -1.9133564 0.81994444 16777215
0.58475125 -1.9133589 0.81994343 16777215
0.58110958 -1.9133613 0.81994236 16777215
0.57746834 -1.9133652 0.81994063 16777215
0.57382762 -1.913371 0.81993818 16777215
0.57018691 -1.9133767 0.8199358 16777215
0.56654614 -1.9133823 0.8199333 16777215
0.5763036 -1.9595444 0.80011302 15856114
0.57257211 -1.9595486 0.80011123 15856114
0.73203301 -1.8420695 0.84675348 16777215
0.72715646 -1.838594 0.84825313 16777215
0.72331852 -1.8377312 0.84862542 16777215
0.71948427 -1.8368695 0.84899724 16777215
0.71565366 -1.8360084 0.84936881 16777215
0.7118268 -1.8351482 0.84973991 16777215
0.70800358 -1.8342888 0.85011071 16777215
0.70418406 -1.8334303 0.85048115 16777215
0.70036775 -1.8325713 0.85085177 16777215
0.69655418 -1.8317107 0.85122311 16777215
0.692779 -1.8309432 0.85155433 16777215
0.68903649 -1.8302546 0.8518514 16777215
0.68529814 -1.8295703 0.85214674 16777215
0.68156272 -1.8288864 0.85244179 16777215
0.68006533 -1.8342636 0.85012168 16777215
0.67634374 -1.8336351 0.85039282 16777215
0.67262477 -1.8330072 0.85066372 16777215
0.66677511 -1.8265018 0.85347068 16777215
0.66311288 -1.8259857 0.85369343 16777215
0.6594528 -1.8254697 0.85391605 16777215
0.65579867 -1.824965 0.85413384 16777215
0.65215629 -1.8244876 0.85433978 16777215
0.64866763 -1.8244402 0.85436028 16777215
0.64519638 -1.824442 0.85435951 16777215
0.64295417 -1.8279626 0.85284036 12960970
0.63947695 -1.8279672 0.8528384 11908284
0.6359998 -1.8279717 0.85283649 11579319
0.63252449 -1.8279817 0.85283214 11250353
0.62904936 -1.8279924 0.85282749 10526629
0.62557137 -1.8279947 0.85282648 8816010
0.62209219 -1.8279935 0.85282707 6973804
0.61861402 -1.8279954 0.85282624 5263184
0.6151365 -1.8279992 0.85282457 5723736
0.61165953 -1.8280048 0.85282218 7829115
0.60818303 -1.8280119 0.85281914 10131872
0.60470605 -1.8280176 0.8528167 11381940
0.60122865 -1.8280219 0.85281479 11710905
0.5977512 -1.8280263 0.85281289 11842491
0.59427375 -1.8280307 0.85281104 11974077
0.59079629 -1.8280351 0.85280907 11974077
0.58731884 -1.8280394 0.85280722 11974077
0.58384132 -1.8280438 0.85280538 11974077
0.58036381 -1.8280482 0.85280341 13092813
0.5768863 -1.8280528 0.85280156 14868965
0.57231337 -1.8245249 0.85432369 16777215
0.59339124 -1.9041903 0.81994951 16777215
0.5897646 -1.9041946 0.81994766 16777215
0.58613753 -1.9041972 0.81994653 16777215
0.58251035 -1.9041996 0.81994545 16777215
0.57888317 -1.904202 0.81994444 16777215
0.57525688 -1.9042072 0.81994212 16777215
0.5716306 -1.9042127 0.81993979 16777215
0.56800431 -1.9042186 0.81993729 16777215
0.56437808 -1.9042243 0.81993484 16777215
0.56075174 -1.9042296 0.81993246 16777215
0.57037997 -1.9501631 0.80011302 16645629
0.72827399 -1.83091 0.84778637 16777215
0.72424495 -1.8295382 0.8483811 16777215
0.72042519 -1.828686 0.84875071 16777215
0.71660912 -1.8278345 0.8491199 16777215
0.71279663 -1.8269838 0.84948874 16777215
0.70898789 -1.826134 0.84985727 16777215
0.70518547 -1.8252921 0.85022229 16777215
0.70140499 -1.8244989 0.85056627 16777215
0.69764847 -1.8237603 0.85088646 16777215
0.69389331 -1.8230177 0.85120845 16777215
0.69015467 -1.8223113 0.85151482 16777215
0.68642366 -1.821618 0.85181546 16777215
0.68269545 -1.8209246 0.85211605 16777215
0.67896956 -1.8202304 0.85241711 16777215
0.67744106 -1.8254811 0.85014033 16777215
0.67374676 -1.8248897 0.85039681 16777215
0.67005765 -1.8243061 0.85064983 16777215
0.66426718 -1.8179321 0.8534137 16777215
0.66063106 -1.8174511 0.8536222 16777215
0.65699929 -1.816977 0.85382777 16777215
0.65336978 -1.8165041 0.85403281 16777215
0.64974225 -1.8160316 0.85423774 16777215
0.64618272 -1.8157462 0.85436147 16777215
0.64272279 -1.8157409 0.85436374 16777215
0.6404919 -1.8192514 0.85284156 13553363
0.63702911 -1.8192575 0.85283893 12303042
0.63356781 -1.8192681 0.85283428 11579318
0.63010651 -1.8192787 0.85282969 10724009
0.62664169 -1.8192793 0.85282946 9539734
0.62317628 -1.8192781 0.85282999 7368564
0.61971182 -1.8192798 0.85282934 6184288
0.61624813 -1.8192835 0.85282767 5526357
0.61278468 -1.8192883 0.85282564 6250081
0.60932195 -1.8192952 0.85282254 8618631
0.60585922 -1.819302 0.85281968 10460837
0.60239553 -1.8193063 0.85281777 11974077
0.59893197 -1.8193107 0.85281587 11974077
0.59546828 -1.8193151 0.85281396 11974077
0.59200466 -1.8193194 0.85281211 11974077
0.58854097 -1.8193237 0.8528102 11974077
0.58507729 -1.8193282 0.85280836 11974077
0.58161354 -1.8193326 0.85280639 11974077
0.57814986 -1.8193369 0.85280448 12632006
0.57468611 -1.8193412 0.85280263 14276828
0.57013077 -1.815829 0.85432553 16777215
0.56667352 -1.8158323 0.8543241 16777215
0.5839237 -1.8833978 0.82502723 16316407
0.58033437 -1.8834021 0.82502544 16053492
0.57674509 -1.8834063 0.82502365 15987699
0.5766747 -1.8951161 0.81994611 16777215
0.5730629 -1.8951219 0.81994361 16777215
0.56945097 -1.8951274 0.81994128 16777215
0.56583905 -1.8951329 0.8199389 16777215
0.56222719 -1.8951385 0.81993645 16777215
0.55861521 -1.8951441 0.81993407 16777215
0.56820518 -1.9408522 0.80011475 16777215
0.56450325 -1.940856 0.80011302 16777215
0.730869 -1.8269997 0.8457008 16777215
0.72523791 -1.8215892 0.84805828 16777215
0.72138429 -1.8206251 0.84847844 16777215
0.71758765 -1.8197963 0.84883952 16777215
0.71380258 -1.8189887 0.84919149 16777215
0.7100327 -1.818212 0.8495298 16777215
0.70626998 -1.8174461 0.84986359 16777215
0.70252955 -1.8167303 0.85017562 16777215
0.69878662 -1.8160005 0.85049355 16777215
0.69504392 -1.8152636 0.85081458 16777215
0.69130433 -1.8145275 0.85113531 16777215
0.68757707 -1.8138165 0.8514452 16777215
0.68386143 -1.8131289 0.85174465 16777215
0.68014878 -1.8124422 0.85204393 16777215
0.6764406 -1.8117602 0.85234118 16777215
0.6748938 -1.8169204 0.85009265 16777215
0.67122459 -1.8163611 0.85033637 16777215
0.66755843 -1.8158041 0.85057902 16777215
0.66238374 -1.8110926 0.85263205 12829637
0.65820867 -1.809094 0.85350299 16777215
0.65460205 -1.8086536 0.85369486 16777215
0.65099645 -1.8082114 0.85388744 16777215
0.64740074 -1.8077923 0.85407007 16777215
0.64380533 -1.8073694 0.85425442 16777215
0.64027143 -1.8071163 0.85436463 16777215
0.63682598 -1.8071134 0.85436594 16777215
0.63338143 -1.8071129 0.85436618 16777215
0.63115525 -1.810634 0.85283184 12303297
0.62770361 -1.8106328 0.85283232 11118766
0.6242519 -1.8106318 0.85283285 9671320
0.62080097 -1.8106328 0.85283238 7829114
0.61735094 -1.8106366 0.85283071 6842219
0.6139009 -1.8106403 0.8528291 6184288
0.61045188 -1.8106472 0.85282606 6315874
0.60700285 -1.8106543 0.85282308 8158080
0.6035533 -1.8106596 0.85282075 10131871
0.60010338 -1.8106639 0.85281879 11710904
0.5966534 -1.8106682 0.85281694 11974077
0.59320343 -1.8106726 0.85281503 11974077
0.58975345 -1.8106768 0.85281312 11974077
0.58630341 -1.8106812 0.85281134 11974077
0.58285344 -1.8106856 0.85280943 11974077
0.5794034 -1.8106899 0.85280752 11974077
0.57595336 -1.8106942 0.85280561 12237248
0.57250327 -1.8106985 0.85280371 13619156
0.56796539 -1.8072019 0.85432738 16777215
0.56452268 -1.8072079 0.8543247 16777215
0.5817039 -1.8744409 0.82502902 13487308
0.57812881 -1.8744451 0.82502723 12763585
0.57455367 -1.8744493 0.82502538 13026757
0.57448381 -1.8861027 0.8199476 14408411
0.57088619 -1.8861082 0.81994522 16777215
0.56728858 -1.8861138 0.81994283 16777215
0.56369096 -1.8861192 0.81994039 16777215
0.56009328 -1.8861246 0.819938 16777215
0.55649561 -1.8861302 0.81993556 16777215
0.56604755 -1.9316144 0.80011654 16777215
0.56236029 -1.9316187 0.80011475 16777215
0.72731465 -1.8164281 0.84654152 16777215
0.722399 -1.8127793 0.84813923 16777215
0.71861559 -1.8119582 0.84849876 16777215
0.71485895 -1.8111968 0.84883213 16777215
0.71110636 -1.8104383 0.84916425 16777215
0.70737922 -1.8097376 0.84947109 16777215
0.70365053 -1.8090254 0.84978294 16777215
0.69991708 -1.8082938 0.85010326 16777215
0.69618666 -1.8075627 0.85042328 16777215
0.6924594 -1.8068324 0.85074311 16777215
0.68873525 -1.8061026 0.85106266 16777215
0.68501925 -1.8053869 0.85137606 16777215
0.68131894 -1.8047054 0.8516745 16777215
0.67763573 -1.8040626 0.85195595 16777215
0.67397356 -1.8034695 0.85221565 16777215
0.67031938 -1.8028917 0.85246861 16777215
0.66876525 -1.8080161 0.85022485 16777215
0.66512167 -1.8074856 0.85045713 16777215
0.66148621 -1.8069715 0.85068226 16777215
0.65610719 -1.8016356 0.85301864 12500671
0.65225893 -1.8004931 0.85351896 16777215
0.64867675 -1.8000811 0.85369933 16777215
0.6451059 -1.7996963 0.85386777 16777215
0.64154196 -1.7993269 0.85402954 16777215
0.63797814 -1.7989537 0.85419303 16777215
0.63441575 -1.7985804 0.85435647 16777215
0.63097996 -1.7985662 0.85436261 16777215
0.62755257 -1.7985762 0.8543582 16777215
0.62531894 -1.8020532 0.85283577 12763846
0.62188154 -1.802054 0.85283542 11447731
0.6184451 -1.8020579 0.85283375 9802906
0.61500865 -1.8020616 0.85283208 9144975
0.61157292 -1.8020675 0.85282952 8881803
0.60813743 -1.8020744 0.85282648 8684424
0.60470188 -1.8020809 0.85282367 9671320
0.60126555 -1.8020852 0.85282177 10987181
0.59782922 -1.8020897 0.85281986 11776697
0.59439278 -1.8020939 0.85281801 11974077
0.59095639 -1.8020982 0.8528161 11974077
0.58752 -1.8021024 0.85281426 11974077
0.58408356 -1.8021066 0.85281235 11974077
0.58064705 -1.802111 0.8528105 11974077
0.57721061 -1.8021153 0.85280865 11974077
0.5737741 -1.8021195 0.85280675 11974077
0.57033765 -1.8021239 0.85280484 13026763
0.56690115 -1.8021282 0.85280293 14803172
0.56238794 -1.7986485 0.85432661 16777215
0.57950163 -1.8655545 0.8250308 10197659
0.57594067 -1.8655586 0.8250289 9868694
0.57237953 -1.8655627 0.82502717 10263452
0.56881851 -1.8655668 0.82502532 12697793
0.56872672 -1.8771654 0.81994665 16777215
0.56514323 -1.877171 0.81994432 16777215
0.56155974 -1.8771764 0.819942 16777215
0.55797619 -1.8771819 0.81993955 16777215
0.5543927 -1.8771873 0.81993717 16777215
0.55080914 -1.8771927 0.81993479 16777215
0.56023419 -1.9224538 0.80011648 16777215
0.72446877 -1.8076457 0.84663302 16777215
0.7197032 -1.8043426 0.84808642 16777215
0.71591747 -1.8034828 0.84846473 16777215
0.71219969 -1.8027869 0.84877086 16777215
0.70848495 -1.8020917 0.84907681 16777215
0.70476091 -1.8013657 0.84939623 16777215
0.70103973 -1.8006397 0.84971559 16777215
0.69732159 -1.7999145 0.85003477 16777215
0.69360662 -1.7991897 0.85035372 16777215
0.68989468 -1.7984656 0.8506723 16777215
0.68618578 -1.797742 0.85099065 16777215
0.68248904 -1.797043 0.85129821 16777215
0.67885339 -1.7964993 0.85153747 16777215
0.67522049 -1.7959569 0.85177606 16777215
0.67158991 -1.7954153 0.85201442 16777215
0.66796166 -1.7948741 0.85225254 16777215
0.66433561 -1.7943331 0.85249054 16777215
0.66275036 -1.7993581 0.85027957 16777215
0.65913856 -1.7988747 0.85049224 16777215
0.65553635 -1.7984124 0.85069573 16777215
0.65115887 -1.7957939 0.85184789 12895429
0.64641249 -1.7921175 0.85346544 16777215
0.64286536 -1.7917649 0.85362065 16777215
0.63931549 -1.7914006 0.85378093 16777215
0.63577104 -1.7910477 0.8539362 16777215
0.63224107 -1.7907321 0.85407501 16777215
0.62871677 -1.7904292 0.85420829 16777215
0.62519366 -1.7901263 0.85434157 16777215
0.6217609 -1.790082 0.854361 16777215
0.61834377 -1.7900831 0.85436058 16777215
0.61492568 -1.7900811 0.85436141 16777215
0.61268514 -1.793555 0.85283291 12829384
0.60926318 -1.7935619 0.85282993 12697799
0.60584116 -1.7935686 0.85282695 12368835
0.60241866 -1.7935739 0.85282469 12171456
0.59899575 -1.7935781 0.85282278 12171456
0.59557283 -1.7935824 0.85282093 12105663
0.59214991 -1.7935866 0.85281903 11974077
0.58872694 -1.7935909 0.85281718 11974077
0.58530402 -1.7935951 0.85281527 11974077
0.58188105 -1.7935995 0.85281336 11974077
0.57845801 -1.7936037 0.85281157 11974077
0.57503504 -1.7936078 0.85280967 11974077
0.571612 -1.7936121 0.85280782 11974077
0.56818897 -1.7936164 0.85280591 12566213
0.56476593 -1.7936207 0.85280406 14145499
0.56026989 -1.7901562 0.85432839 16777215
0.55685413 -1.7901621 0.85432583 16777215
0.57376945 -1.8567412 0.82503092 9802901
0.5702225 -1.8567458 0.8250289 9802901
0.56667536 -1.85675 0.82502699 11645105
0.56658465 -1.8682947 0.81994736 16777215
0.56301463 -1.8682982 0.81994581 16777215
0.5594452 -1.8683035 0.81994343 16777215
0.55587572 -1.8683089 0.8199411 16777215
0.55230623 -1.8683144 0.81993866 16777215
0.54873669 -1.8683197 0.81993634 16777215
0.55812472 -1.9133607 0.80011827 16777215
0.72196728 -1.7997377 0.84636837 16777215
0.71710187 -1.796156 0.84795201 16777215
0.71328568 -1.7951877 0.84838021 16777215
0.70957571 -1.7944791 0.84869343 16777215
0.70586371 -1.7937582 0.84901214 16777215
0.70215881 -1.7930483 0.84932601 16777215
0.69846851 -1.7923688 0.84962654 16777215
0.69478053 -1.7916884 0.84992731 16777215
0.69109857 -1.7910167 0.85022426 16777215
0.68743181 -1.7903779 0.85050672 16777215
0.6837877 -1.7897921 0.85076582 16777215
0.68014336 -1.7891994 0.85102785 16777215
0.67651808 -1.7886513 0.85127014 16777215
0.67289841 -1.7881123 0.8515085 16777215
0.66928089 -1.7875736 0.85174668 16777215
0.66566563 -1.7870351 0.8519848 16777215
0.66205615 -1.7865065 0.85221845 16777215
0.65845877 -1.7860054 0.85244 16777215
0.65487236 -1.7855288 0.85265076 16777215
0.65326393 -1.7905009 0.85045242 16777215
0.64969099 -1.7900809 0.85063803 16777215
0.64612526 -1.7896765 0.85081685 16777215
0.64175028 -1.7869996 0.85200047 13224393
0.63713485 -1.7836152 0.85349679 12829636
0.63361722 -1.7833046 0.85363418 16777215
0.63010722 -1.783012 0.85376358 16777215
0.62660152 -1.7827283 0.85388893 16777215
0.62310022 -1.7824544 0.85401011 16777215
0.61960399 -1.7821918 0.85412621 16777215
0.61612248 -1.7819693 0.8542245 16777215
0.61264247 -1.7817484 0.8543222 16777215
0.60921192 -1.7816709 0.85435647 16777215
0.60580885 -1.7816741 0.85435504 16777215
0.60240579 -1.7816772 0.85435367 16777215
0.59900266 -1.7816803 0.8543523 16777215
0.59559959 -1.7816834 0.85435092 16777215
0.59333283 -1.7851378 0.85282362 13158349
0.5899229 -1.785141 0.85282218 12895178
0.58651304 -1.7851443 0.85282075 12697799
0.58310318 -1.7851475 0.85281932 12500421
0.57969326 -1.785151 0.85281777 12237249
0.57628345 -1.7851545 0.85281622 12039870
0.57287359 -1.785158 0.85281473 12303041
0.56946498 -1.7851655 0.85281134 12632006
0.56605685 -1.7851746 0.85280734 13158349
0.56157124 -1.7817258 0.85433221 16777215
0.55816787 -1.7817287 0.8543309 16777215
0.55476594 -1.7817361 0.85432768 16777215
0.57161474 -1.8479915 0.82503343 10065817
0.56808192 -1.847997 0.82503104 10065816
0.56454891 -1.848002 0.82502878 11513519
0.56101561 -1.848006 0.82502699 14277081
0.56090319 -1.8594964 0.81994659 16777215
0.55734718 -1.8595002 0.81994492 16777215
0.55379164 -1.8595057 0.81994259 16777215
0.55023611 -1.8595109 0.81994021 16777215
0.54668051 -1.8595164 0.81993783 16777215
0.54312485 -1.8595216 0.81993544 16777215
0.7199561 -1.7930659 0.84558135 16777215
0.71473587 -1.7885723 0.84757781 16777215
0.71071112 -1.7870493 0.84825444 16777215
0.70702583 -1.7863716 0.84855551 16777215
0.70334291 -1.7856932 0.84885693 16777215
0.69966865 -1.78503 0.84915161 16777215
0.69600612 -1.7843904 0.84943569 16777215
0.69234699 -1.7837529 0.84971893 16777215
0.68871343 -1.7831756 0.84997553 16777215
0.68507928 -1.7825906 0.8502354 16777215
0.68144614 -1.7820023 0.85049677 16777215
0.67781544 -1.7814144 0.85075796 16777215
0.67419934 -1.780859 0.85100472 16777215
0.6705932 -1.7803243 0.8512423 16777215
0.66698921 -1.7797897 0.85147977 16777215
0.6633938 -1.7792728 0.85170943 16777215
0.65981454 -1.7787941 0.85192215 16777215
0.65624511 -1.7783369 0.85212529 16777215
0.65268362 -1.7778966 0.85232091 16777215
0.64912617 -1.7774628 0.85251361 16777215
0.64558119 -1.7770585 0.8526932 16777215
0.64394146 -1.7819556 0.85051751 16777215
0.64040691 -1.781601 0.85067505 16777215
0.63687932 -1.7812622 0.85082567 16777215
0.63336033 -1.7809436 0.85096711 16777215
0.62914163 -1.7786295 0.85199529 12698049
0.62499839 -1.7765054 0.85293901 12500670
0.62104386 -1.7749004 0.853652 12434877
0.61757267 -1.7746769 0.8537513 16777215
0.61410308 -1.7744555 0.85384965 16777215
0.61064661 -1.7742701 0.85393208 16777215
0.60719341 -1.774092 0.85401118 16777215
0.60374427 -1.7739239 0.85408586 16777215
0.60030186 -1.773774 0.85415244 16777215
0.59687197 -1.7736598 0.85420322 16777215
0.59344494 -1.7735528 0.85425079 16777215
0.59001833 -1.7734458 0.85429823 16777215
0.58659929 -1.7733607 0.85433602 16777215
0.58320004 -1.7733355 0.85434735 16777215
0.57980967 -1.7733371 0.85434651 16777215
0.57641983 -1.7733406 0.85434502 16777215
0.57303053 -1.7733457 0.85434276 16777215
0.56964046 -1.7733485 0.85434151 16777215
0.56625038 -1.7733512 0.85434031 16777215
0.56286019 -1.7733537 0.85433918 16777215
0.55947155 -1.7733612 0.85433584 16777215
0.55610532 -1.7734412 0.85430038 16777215
0.55274385 -1.7735375 0.85425758 16777215
0.56947684 -1.8393096 0.82503599 14473946
0.56595778 -1.8393151 0.82503355 15395305
0.56243867 -1.8393205 0.8250311 16053492
0.55891949 -1.8393259 0.82502872 16447993
0.55880839 -1.8507639 0.819947 16777215
0.55526584 -1.8507663 0.81994593 16777215
0.55172378 -1.8507706 0.81994402 16777215
0.54818201 -1.8507758 0.8199417 16777215
0.52266115 -1.775051 0.85358512 16777215
0.51935059 -1.7753419 0.8534559 16777215
0.71831995 -1.7873393 0.84439385 16777215
0.71270126 -1.7818308 0.84685314 16777215
0.70827931 -1.779283 0.84799051 16777215
0.70453948 -1.7784374 0.84836805 16777215
0.70088565 -1.777802 0.84865165 16777215
0.69723451 -1.7771671 0.84893513 16777215
0.69360924 -1.7765923 0.84919178 16777215
0.68998682 -1.776019 0.84944773 16777215
0.68636256 -1.7754351 0.84970832 16777215
0.68274057 -1.774851 0.84996903 16777215
0.67912102 -1.7742676 0.85022962 16777215
0.67550397 -1.7736843 0.85048997 16777215
0.67189699 -1.7731218 0.85074109 16777215
0.6683042 -1.7725914 0.8509779 16777215
0.66472775 -1.7720988 0.85119778 16777215
0.6611706 -1.7716531 0.85139674 16777215
0.65762556 -1.7712356 0.85158312 16777215
0.6540904 -1.7708404 0.85175955 16777215
0.65056354 -1.7704637 0.85192776 16777215
0.64703822 -1.7700871 0.85209584 16777215
0.64351076 -1.7697004 0.85226852 16777215
0.63998526 -1.769315 0.85244054 16777215
0.63646472 -1.7689394 0.85260826 16777215
0.63295585 -1.7685922 0.85276324 16777215
0.63127673 -1.773417 0.8506093 16777215
0.62778562 -1.7731417 0.85073221 16777215
0.62429363 -1.7728606 0.85085768 16777215
0.62081373 -1.7726111 0.85096902 16777215
0.61734217 -1.7723832 0.85107088 16777215
0.61387342 -1.7721605 0.85117024 16777215
0.61011589 -1.7710903 0.85164803 12040119
0.60643816 -1.7702426 0.85202646 11842740
0.60280991 -1.7695314 0.85234398 11711154
0.59924507 -1.7690008 0.85258079 11711154
0.59574413 -1.7686554 0.85273504 11711154
0.59227413 -1.7683989 0.85284954 11711154
0.58887452 -1.7683529 0.85287011 11711154
0.58476633 -1.7661455 0.85385555 16777215
0.58135444 -1.7660475 0.85389924 16777215
0.57796371 -1.7660139 0.85391438 16777215
0.57457554 -1.7659875 0.85392606 16777215
0.57120359 -1.7660116 0.85391533 16777215
0.56785017 -1.7660944 0.85387838 16777215
0.56449634 -1.7661766 0.85384166 16777215
0.56114227 -1.7662594 0.85380471 16777215
0.55778795 -1.7663423 0.85376769 16777215
0.5544278 -1.7664075 0.85373861 16777215
0.55105144 -1.766421 0.85373259 16777215
0.54767507 -1.7664343 0.85372663 16777215
0.54432315 -1.7665286 0.85368454 16777215
0.54098475 -1.7666686 0.85362202 16777215
0.53712809 -1.7650849 0.85432899 16777215
0.53375208 -1.7650911 0.85432625 16777215
0.53037602 -1.7650973 0.85432345 16711422
0.52699977 -1.7651031 0.85432088 16579836
0.52436328 -1.7676381 0.85318923 16777215
0.52106988 -1.7679464 0.8530516 16777215
0.51777166 -1.7682419 0.85291964 16777215
0.71762079 -1.7839562 0.84217286 15658734
0.71112037 -1.7762355 0.84563625 16777215
0.70626575 -1.7725812 0.8472755 16777215
0.70212883 -1.7707063 0.84811652 16777215
0.69847721 -1.7700467 0.84841245 16777215
0.6948635 -1.7694771 0.84866792 16777215
0.6912511 -1.7689052 0.84892446 16777215
0.68763775 -1.7683251 0.84918463 16777215
0.68402684 -1.7677454 0.84944475 16777215
0.68041837 -1.767166 0.84970462 16777215
0.67681235 -1.7665871 0.84996438 16777215
0.67320871 -1.7660085 0.8502239 16777215
0.66961235 -1.765443 0.85047752 16777215
0.66608781 -1.7650629 0.85064805 16777215
0.66256678 -1.7646883 0.85081613 16777215
0.65904742 -1.7643139 0.8509841 16777215
0.6555295 -1.7639397 0.85115188 16777215
0.65201312 -1.7635657 0.85131973 16777215
0.64849836 -1.7631917 0.85148746 16777215
0.6449784 -1.7627997 0.85166329 16777215
0.64146894 -1.7624323 0.8518281 16777215
0.63796157 -1.7620668 0.85199213 16777215
0.63445467 -1.7616986 0.85215724 16777215
0.63095528 -1.7613474 0.85231483 16777215
0.62747121 -1.7610354 0.85245472 16777215
0.62400228 -1.760763 0.85257685 16777215
0.6205411 -1.7605098 0.85269052 16777215
0.61709344 -1.7602925 0.85278797 16777215
0.61364776 -1.7600785 0.85288399 16777215
0.61020648 -1.7598748 0.85297537 16777215
0.6067766 -1.7597021 0.85305285 16777215
0.60334831 -1.7595322 0.85312903 16777215
0.59992945 -1.7593881 0.8531937 16777215
0.59818685 -1.7642294 0.85102201 16777215
0.5947693 -1.764115 0.85107327 16777215
0.59135866 -1.7640204 0.85111576 16777215
0.58796316 -1.7639704 0.85113817 16777215
0.58459991 -1.7640179 0.85111684 16777215
0.58007282 -1.760499 0.85269541 13750737
0.57622969 -1.7590463 0.85334706 16777215
0.57284087 -1.7589854 0.85337436 16777215
0.56949818 -1.7590677 0.85333747 16777215
0.56615514 -1.7591499 0.85330057 16777215
0.56281179 -1.7592322 0.85326362 16777215
0.55945665 -1.7592781 0.85324305 16777215
0.55609119 -1.7592914 0.85323709 16777215
0.55272782 -1.7593118 0.85322797 16777215
0.54936832 -1.7593447 0.85321319 16777215
0.5460391 -1.759477 0.85315382 16777215
0.54269743 -1.7595701 0.85311204 16777215
0.53937131 -1.7597158 0.85304666 16777215
0.5351398 -1.7568517 0.85433149 16448250
0.53177691 -1.7568583 0.85432851 16119285
0.52841431 -1.756866 0.85432506 15856113
0.5250501 -1.7568682 0.8543241 15658735
0.5216853 -1.7568685 0.85432392 16119285
0.51947796 -1.7608495 0.85253817 16777215
0.51619369 -1.7611557 0.85240078 16777215
0.7191934 -1.7862337 0.83740777 14474460
0.71015376 -1.7721848 0.84374017 16250871
0.70471406 -1.7670506 0.84605438 16777215
0.70017403 -1.7641392 0.84736669 16777215
0.69615048 -1.7625105 0.84810072 16777215
0.69250709 -1.7618361 0.84840477 16777215
0.6889137 -1.7612829 0.84865403 16777215
0.68532389 -1.7607336 0.84890169 16777215
0.68173593 -1.7601833 0.8491497 16777215
0.67814672 -1.7596242 0.84940177 16777215
0.67457581 -1.7591072 0.84963483 16777215
0.67101997 -1.7586244 0.84985232 16777215
0.66748756 -1.7581987 0.85004425 16777215
0.66397619 -1.7578245 0.85021293 16777215
0.66046721 -1.7574527 0.85038054 16777215
0.65695977 -1.7570812 0.85054803 16777215
0.65345389 -1.7567097 0.8507154 16777215
0.64994949 -1.7563385 0.85088277 16777215
0.64644206 -1.7559549 0.85105562 16777215
0.64294356 -1.7555918 0.85121936 16777215
0.63944656 -1.7552285 0.85138297 16777215
0.63595104 -1.7548658 0.85154653 16777215
0.63245702 -1.754503 0.85171008 16777215
0.62896919 -1.7541536 0.85186756 16777215
0.62550455 -1.7538658 0.85199732 16777215
0.62205923 -1.7536297 0.85210371 16777215
0.61862326 -1.7534175 0.85219938 16777215
0.61519897 -1.7532367 0.85228086 16777215
0.61178368 -1.7530797 0.85235167 16777215
0.6083619 -1.7529019 0.85243177 16777215
0.60494035 -1.7527227 0.85251248 16777215
0.60152817 -1.7525691 0.85258174 16777215
0.59811658 -1.7524155 0.852651 16777215
0.59471744 -1.752297 0.85270447 16777215
0.59134042 -1.7522433 0.85272861 16777215
0.58796144 -1.752183 0.85275584 16777215
0.5861491 -1.7568619 0.85064685 16777215
0.5827893 -1.7568871 0.85063547 16777215
0.57944232 -1.7569518 0.85060632 16777215
0.57559806 -1.7554852 0.85126734 13750737
0.57113785 -1.7520915 0.85279697 16777215
0.5678035 -1.7521673 0.85276288 16777215
0.56445402 -1.7521966 0.85274976 16777215
0.56110209 -1.7522184 0.85273987 16777215
0.55775011 -1.7522402 0.85272998 16777215
0.554398 -1.7522622 0.85272008 16777215
0.5510779 -1.7523872 0.85266376 16777215
0.54775727 -1.7525122 0.85260737 16777215
0.54442614 -1.7526046 0.85256577 16777215
0.54109472 -1.7526972 0.85252404 16777215
0.5377655 -1.7527984 0.85247844 16777215
0.534428 -1.7528732 0.85244471 16777215
0.53051847 -1.7510356 0.85327291 12105912
0.52706975 -1.7507253 0.85341287 11711154
0.52409875 -1.7520303 0.85282469 11711154
0.52121949 -1.7536657 0.8520875 16777215
0.51793635 -1.7539357 0.85196573 16777215
0.51465213 -1.7542058 0.85184401 16777215
0.51136702 -1.7544765 0.851722 16777215
0.71019757 -1.770665 0.84070826 14606046
0.70385265 -1.7632618 0.8440612 16119285
0.69875896 -1.7589443 0.84601671 16777215
0.69435441 -1.7563323 0.84719968 16777215
0.69031376 -1.7546222 0.84797412 16777215
0.68664682 -1.7538527 0.84832257 16777215
0.68307871 -1.7533303 0.84855926 16777215
0.67951983 -1.7528263 0.84878749 16777215
0.6759631 -1.7523228 0.84901559 16777215
0.67242545 -1.7518638 0.84922338 16777215
0.66889739 -1.7514254 0.84942198 16777215
0.66538137 -1.7510142 0.84960818 16777215
0.66187841 -1.7506335 0.84978062 16777215
0.65838134 -1.7502644 0.84994775 16777215
0.65488583 -1.7498957 0.85011482 16777215
0.65139133 -1.7495258 0.85028231 16777215
0.64789736 -1.7491533 0.85045105 16777215
0.64440918 -1.7487925 0.85061437 16777215
0.64092255 -1.748432 0.85077763 16777215
0.63743734 -1.7480718 0.85094082 16777215
0.63395369 -1.7477117 0.8511039 16777215
0.63047147 -1.7473516 0.85126698 16777215
0.62699753 -1.7470111 0.85142124 16777215
0.62357312 -1.746806 0.85151404 16777215
0.62016386 -1.746642 0.85158837 16777215
0.6167593 -1.7464893 0.85165757 16777215
0.61335528 -1.7463367 0.85172671 16777215
0.60995191 -1.746184 0.85179579 16777215
0.60654914 -1.7460313 0.85186493 16777215
0.60314703 -1.7458788 0.85193408 16777215
0.59974551 -1.7457261 0.85200316 16777215
0.59634459 -1.7455736 0.85207224 16777215
0.59294623 -1.745427 0.8521387 16777215
0.58958083 -1.7453769 0.85216129 16777215
0.58621567 -1.7453271 0.85218388 16777215
0.58284968 -1.7452739 0.8522079 16777215
0.5794816 -1.7452142 0.85223508 16777215
0.57770765 -1.7500302 0.85005391 16777215
0.57434916 -1.7500279 0.85005486 16777215
0.57099074 -1.7500259 0.85005587 16777215
0.56608164 -1.7451922 0.85224497 16777215
0.56274039 -1.745214 0.8522352 16777215
0.55939901 -1.7452358 0.8522253 16777215
0.55606091 -1.7452679 0.8522107 16777215
0.55277681 -1.7454731 0.85211778 16777215
0.5494647 -1.745591 0.85206437 16777215
0.54614413 -1.7456828 0.85202277 16777215
0.54282314 -1.7457746 0.85198116 16777215
0.53950179 -1.7458665 0.85193962 16777215
0.53618014 -1.7459582 0.85189807 16777215
0.53285933 -1.7460542 0.85185456 16777215
0.52955508 -1.7462068 0.85178554 16777215
0.52628177 -1.7464654 0.85166836 16777215
0.52301031 -1.7467339 0.85154676 16777215
0.51973778 -1.7470024 0.85142517 16777215
0.51646417 -1.7472706 0.8513037 16777215
0.51318955 -1.7475389 0.8511821 16777215
0.50991386 -1.7478075 0.85106057 16777215
0.71184307 -1.773146 0.83585536 14145495
0.7038101 -1.7615328 0.84114015 14408667
0.69805276 -1.7555443 0.84386528 15921906
0.69321626 -1.7518308 0.84555513 16777215
0.68875211 -1.7490286 0.84683037 16777215
0.68469381 -1.7472376 0.8476454 16777215
0.68090451 -1.7461207 0.84815371 16777215
0.67734605 -1.7455896 0.84839535 16777215
0.67382246 -1.7451438 0.84859824 16777215
0.67030078 -1.7446983 0.84880102 16777215
0.66679299 -1.7442846 0.84898919 16777215
0.66328883 -1.7438765 0.84917498 16777215
0.65979427 -1.7434891 0.84935111 16777215
0.65630901 -1.7431229 0.84951788 16777215
0.65282315 -1.7427511 0.84968704 16777215
0.64934385 -1.7423928 0.84985012 16777215
0.64586598 -1.7420348 0.85001302 16777215
0.64238954 -1.7416768 0.85017598 16777215
0.63891464 -1.7413191 0.85033876 16777215
0.63544416 -1.7409695 0.85049778 16777215
0.63198596 -1.7406503 0.85064304 16777215
0.62853777 -1.7403554 0.85077727 16777215
0.62511742 -1.7401353 0.8508774 16777215
0.62172264 -1.7399849 0.85094589 16777215
0.61832845 -1.7398342 0.85101444 16777215
0.61493456 -1.7396829 0.85108328 16777215
0.61154121 -1.7395314 0.85115218 16777215
0.6081484 -1.7393798 0.85122126 16777215
0.60475624 -1.7392281 0.85129023 16777215
0.60136473 -1.7390769 0.85135913 16777215
0.59797376 -1.7389252 0.85142809 16777215
0.59458345 -1.7387738 0.85149699 16777215
0.59119374 -1.7386223 0.85156596 16777215
0.58783096 -1.7385497 0.85159898 16777215
0.58447623 -1.7385001 0.85162157 16777215
0.58112162 -1.7384504 0.85164416 16777215
0.57776731 -1.7384009 0.85166669 16777215
0.57441223 -1.7383486 0.85169047 16777215
0.57262528 -1.7431175 0.84952039 16777215
0.56927699 -1.7431142 0.84952182 16777215
0.56592906 -1.7431121 0.84952283 16777215
0.56147319 -1.73964 0.85110283 13750737
0.55773884 -1.7383983 0.85166788 16777215
0.55446517 -1.7386022 0.85157514 16777215
0.55116153 -1.7387129 0.85152471 16777215
0.54785132 -1.738804 0.85148323 16777215
0.54454082 -1.7388952 0.8514418 16777215
0.5412299 -1.7389863 0.85140026 16777215
0.53792572 -1.7391006 0.85134828 16777215
0.53462559 -1.7392298 0.85128945 16777215
0.53132504 -1.7393591 0.85123062 16777215
0.52805161 -1.7395809 0.85112971 16777215
0.52479315 -1.7398558 0.8510046 16777215
0.52153099 -1.7401221 0.85088342 16777215
0.51826787 -1.7403885 0.85076219 16777215
0.51500368 -1.7406551 0.85064089 16777215
0.51173848 -1.7409216 0.8505196 16777215
0.50847226 -1.7411882 0.8503983 16777215
0.7136184 -1.775943 0.83084005 14277081
0.70507902 -1.7630929 0.8367157 13948116
0.69822156 -1.7543533 0.84071165 14277081
0.69270366 -1.7489194 0.84319627 15921906
0.68792844 -1.7453214 0.84484136 16448250
0.68348044 -1.7425243 0.84612036 16777215
0.67932606 -1.7404537 0.847067 16777215
0.67540979 -1.7389776 0.84774196 16777215
0.67170966 -1.7380477 0.84816712 16777215
0.66819608 -1.7375953 0.84837401 16777215
0.66470212 -1.73719 0.84855932 16777215
0.66120988 -1.7367849 0.84874457 16777215
0.65772367 -1.7363914 0.84892446 16777215
0.65425068 -1.7360291 0.8490901 16777215
0.65078157 -1.7356734 0.84925276 16777215
0.64732522 -1.7353482 0.84940147 16777215
0.64387304 -1.7350309 0.84954655 16777215
0.64042217 -1.7347138 0.84969157 16777215
0.63697457 -1.7344022 0.84983402 16777215
0.63353223 -1.7341015 0.84997147 16777215
0.63010168 -1.7338303 0.85009545 16777215
0.626683 -1.7335892 0.85020572 16777215
0.62327325 -1.7333703 0.8503058 16777215
0.61988652 -1.7332138 0.85037738 16777215
0.61650282 -1.7330642 0.85044575 16777215
0.61311978 -1.7329148 0.85051411 16777215
0.60973734 -1.7327653 0.85058242 16777215
0.60635549 -1.7326158 0.85065079 16777215
0.60297424 -1.7324666 0.85071903 16777215
0.59959328 -1.7323164 0.8507877 16777215
0.59621286 -1.7321659 0.85085648 16777215
0.59283304 -1.7320155 0.85092527 16777215
0.58945388 -1.7318652 0.85099399 16777215
0.58609182 -1.7317642 0.85104018 16777215
0.58274746 -1.731715 0.85106266 16777215
0.57940328 -1.7316658 0.85108519 16777215
0.57605928 -1.7316166 0.85110766 16777215
0.57271546 -1.7315674 0.85113019 16777215
0.56937188 -1.7315181 0.85115272 16777215
0.56758416 -1.7362772 0.84897667 16777215
0.56424308 -1.7362642 0.84898263 16777215
0.560902 -1.7362512 0.84898859 16777215
0.55707568 -1.7347101 0.84969318 13750737
0.55286795 -1.7319412 0.85095924 16777215
0.54957992 -1.7320696 0.85090053 16777215
0.54629135 -1.732198 0.85084182 16777215
0.54300225 -1.7323263 0.85078317 16777215
0.53971267 -1.7324548 0.85072446 16777215
0.53642261 -1.7325832 0.85066569 16777215
0.53313202 -1.7327116 0.85060704 16777215
0.52984089 -1.7328401 0.85054827 16777215
0.52656829 -1.7330317 0.85046065 16777215
0.52330774 -1.7332666 0.85035324 16777215
0.52005196 -1.7335206 0.85023707 16777215
0.51680237 -1.7337992 0.8501097 16777215
0.51355177 -1.734078 0.8499822 16777215
0.51029605 -1.7343432 0.84986097 16777215
0.50703919 -1.7346079 0.84973997 16777215
0.7159971 -1.7802362 0.82511824 14277081
0.7064811 -1.7649806 0.83212686 14013909
0.69936997 -1.755628 0.8364234 13750737
0.69312519 -1.7483743 0.83975583 13882323
0.68778563 -1.7433498 0.84206414 14935011
0.68290657 -1.7394514 0.84385502 15724527
0.67851305 -1.7367611 0.84509104 16250871
0.67427868 -1.7344542 0.84615082 16777215
0.67025012 -1.7326578 0.84697616 16777215
0.66640496 -1.7313212 0.84759015 16777215
0.66270977 -1.7303641 0.84802979 16777215
0.65918434 -1.7298445 0.84826857 16777215
0.65570897 -1.7294521 0.84844875 16777215
0.65225875 -1.7291228 0.84860009 16777215
0.64881516 -1.7288074 0.84874499 16777215
0.64537281 -1.7284923 0.84888977 16777215
0.6419366 -1.7281904 0.84902847 16777215
0.63850284 -1.7278918 0.84916562 16777215
0.63507122 -1.7275957 0.84930164 16777215
0.63165659 -1.7273434 0.84941757 16777215
0.62824321 -1.7270916 0.84953326 16777215
0.62484312 -1.7268741 0.84963322 16777215
0.62144399 -1.7266568 0.849733 16777215
0.61806148 -1.7264839 0.84981245 16777215
0.61468834 -1.7263355 0.84988058 16777215
0.61131579 -1.726187 0.84994876 16777215
0.60794383 -1.7260388 0.85001695 16777215
0.60457242 -1.7258903 0.85008514 16777215
0.60120165 -1.725742 0.85015333 16777215
0.59783149 -1.7255936 0.8502214 16777215
0.59446192 -1.7254455 0.85028952 16777215
0.59109294 -1.7252971 0.85035765 16777215
0.58772457 -1.7251489 0.85042572 16777215
0.5843634 -1.7250204 0.85048473 16777215
0.58103871 -1.7249998 0.85049421 16777215
0.57772696 -1.7250179 0.85048598 16777215
0.57441515 -1.7250358 0.8504777 16777215
0.57110322 -1.7250538 0.85046947 16777215
0.56779122 -1.7250718 0.85046118 16777215
0.56447917 -1.7250898 0.85045284 16777215
0.56262797 -1.7296466 0.84835947 16777215
0.55933297 -1.7297466 0.84831357 16777215
0.55603695 -1.7298443 0.84826863 16777215
0.55269748 -1.7298059 0.84828627 13750737
0.54803824 -1.7255633 0.8502354 16777215
0.54476863 -1.725721 0.85016292 16777215
0.54148895 -1.7258484 0.85010433 16777215
0.53820884 -1.725976 0.85004568 16777215
0.5349282 -1.7261035 0.84998715 16777215
0.53164703 -1.7262312 0.84992856 16777215
0.52836543 -1.7263588 0.84986991 16777215
0.52509987 -1.7265418 0.84978586 16777215
0.52184159 -1.7267513 0.84968954 16777215
0.51859063 -1.7269887 0.84958053 16777215
0.5153423 -1.7272379 0.84946597 16777215
