# .PCD v0.7 - Point Cloud Data file format
VERSION 0.7
FIELDS x y z rgb
SIZE 4 4 4 4
TYPE F F F U
COUNT 1 1 1 1
WIDTH 1155
HEIGHT 1
VIEWPOINT 0 0 0 1 0 0 0
POINTS 1155
DATA ascii
-0.74048883 -1.7372751 0.83381641 592137
-0.74279463 -1.7349709 0.83489001 592394
-0.74508172 -1.7326459 0.83597338 657930
-0.74684227 -1.7291911 0.83758312 658187
-0.74859589 -1.7257509 0.83918601 789773
-0.75034231 -1.722325 0.8407824 921359
-0.75208169 -1.718913 0.84237224 1184531
-0.7533738 -1.7145699 0.84439582 1447959
-0.75576288 -1.7126088 0.84530962 3290162
-0.75906503 -1.7126079 0.84531003 3355185
-0.76236671 -1.7126058 0.84531099 3223599
-0.76566845 -1.712604 0.84531182 2829098
-0.78163934 -1.7392327 0.83290428 8816260
-0.78499502 -1.739233 0.8329041 8882053
-0.7883507 -1.7392334 0.83290392 8947846
-0.79170632 -1.7392337 0.83290374 9013639
-0.79506201 -1.7392341 0.83290356 9013639
-0.79841769 -1.7392344 0.83290339 9013896
-0.80177337 -1.7392348 0.83290327 9079432
-0.80512905 -1.7392352 0.83290309 9079689
-0.80848473 -1.7392356 0.83290291 9079689
-0.81184036 -1.739236 0.83290273 9079432
-0.8151961 -1.7392364 0.83290255 9013896
-0.81855172 -1.7392367 0.83290237 9013896
-0.82190734 -1.7392368 0.83290225 9013896
-0.82526284 -1.7392368 0.83290225 9079432
-0.82861835 -1.7392368 0.83290225 9079689
-0.83197379 -1.7392368 0.83290225 9145481
-0.83532923 -1.7392368 0.83290231 9211018
-0.83868474 -1.7392368 0.83290231 9276811
-0.84204024 -1.7392368 0.83290231 9408396
-0.84539574 -1.7392368 0.83290231 9474190
-0.84875125 -1.7392368 0.83290231 9276811
-0.54829758 -1.7322756 0.83246326 5263697
-0.55132705 -1.7313507 0.83289623 9276811
-0.55466986 -1.7313501 0.83289653 9408397
-0.5580126 -1.7313493 0.83289695 9342604
-0.56135541 -1.7313488 0.83289725 9276811
-0.56469816 -1.731348 0.83289754 9211018
-0.56804091 -1.7313472 0.8328979 9145225
-0.57138366 -1.7313465 0.83289826 9079688
-0.57472646 -1.7313459 0.83289856 9079432
-0.57806921 -1.7313453 0.8328988 9079432
-0.58141196 -1.7313446 0.83289921 9013896
-0.58475471 -1.7313437 0.83289951 9013896
-0.58809745 -1.731343 0.83289987 9079688
-0.5914402 -1.7313424 0.83290017 9145225
-0.59478295 -1.7313418 0.83290046 9145225
-0.5981257 -1.731341 0.83290082 9079688
-0.60146844 -1.7313403 0.83290112 9013895
-0.60481119 -1.7313397 0.83290142 9013639
-0.608154 -1.7313392 0.83290166 8948103
-0.61149675 -1.7313385 0.83290201 8947845
-0.61483949 -1.731338 0.83290225 8816260
-0.6181823 -1.7313375 0.83290249 8618881
-0.62152511 -1.731337 0.83290273 8355709
-0.62486786 -1.7313364 0.83290303 8092537
-0.62821066 -1.7313358 0.83290327 7566193
-0.63155335 -1.7313352 0.83290356 6908264
-0.63489616 -1.7313347 0.8329038 5460818
-0.63206726 -1.7156177 0.84026152 2828842
-0.63112366 -1.7048359 0.8453089 2829097
-0.63441467 -1.7048376 0.84530807 3026476
-0.63770497 -1.7048376 0.84530807 3158063
-0.6409952 -1.7048374 0.84530813 3289649
-0.64428544 -1.7048373 0.84530818 3158577
-0.66156006 -1.7393991 0.8291285 329221
-0.66721874 -1.745055 0.82648081 329221
-0.67147559 -1.7472247 0.82546508 329221
-0.67574334 -1.7494 0.82444668 329222
-0.68002188 -1.7515807 0.82342589 329221
-0.68406695 -1.7531772 0.82267851 329221
-0.68769252 -1.7537513 0.82240975 329221
-0.69132054 -1.7543259 0.82214075 394758
-0.69495088 -1.7549005 0.82187176 394758
-0.6985833 -1.7554746 0.82160294 394758
-0.70193464 -1.7553812 0.82164675 394758
-0.70511109 -1.7548786 0.82188195 394758
-0.70828551 -1.7543759 0.82211727 394758
-0.71145803 -1.7538736 0.82235247 394758
-0.7146287 -1.7533714 0.82258755 394758
-0.71772099 -1.7526935 0.82290488 394758
-0.72049046 -1.7512822 0.8235656 395014
-0.72325522 -1.7498728 0.82422537 460551
-0.72601527 -1.7484655 0.82488418 460551
-0.72877073 -1.7470604 0.82554191 460551
-0.73152167 -1.7456578 0.82619864 460807
-0.73403233 -1.7437294 0.82710135 526344
-0.73635715 -1.7414036 0.82819015 526600
-0.73867637 -1.7390858 0.82927519 526601
-0.74098927 -1.7367746 0.83035725 526601
-0.74329585 -1.7344695 0.83143628 592137
-0.74546725 -1.7318884 0.83264458 592394
-0.74722797 -1.7284335 0.83426201 657930
-0.74898165 -1.7249931 0.83587247 658187
-0.75072819 -1.721567 0.83747643 723980
-0.75246757 -1.7181548 0.83907378 855566
-0.7535609 -1.7133861 0.84130621 1118738
-0.75439543 -1.7081051 0.84377843 1381910
-0.756154 -1.7048339 0.84530979 3158577
-0.7594443 -1.7048339 0.84530979 3289648
-0.76273453 -1.7048337 0.84530985 3157806
-0.76602459 -1.7048334 0.84531003 3026220
-0.76931399 -1.7048314 0.84531099 2763304
-0.78532952 -1.7313328 0.8329047 8816260
-0.78867269 -1.7313333 0.83290446 8947846
-0.79201585 -1.7313336 0.83290434 8948103
-0.79535896 -1.731334 0.83290416 9013639
-0.798702 -1.731334 0.8329041 9013895
-0.80204499 -1.731334 0.8329041 9079688
-0.80538797 -1.731334 0.8329041 9145481
-0.80873096 -1.731334 0.8329041 9145225
-0.81207395 -1.731334 0.8329041 9079688
-0.81541687 -1.731334 0.83290416 9013896
-0.81875986 -1.731334 0.83290416 9013896
-0.82210284 -1.731334 0.83290416 9079432
-0.82544583 -1.731334 0.83290416 9079432
-0.82878876 -1.7313339 0.83290422 9079688
-0.83213168 -1.7313339 0.83290422 9145225
-0.83547467 -1.7313339 0.83290422 9211018
-0.83881766 -1.7313339 0.83290422 9276811
-0.84216064 -1.7313339 0.83290422 9342604
-0.84550357 -1.7313337 0.83290428 9408397
-0.84884655 -1.7313337 0.83290428 9211275
-0.55078101 -1.7479494 0.82140183 5198160
-0.5478211 -1.7292678 0.83018833 5592661
-0.54919809 -1.7235105 0.83289611 9145225
-0.5525285 -1.7235099 0.83289647 9211275
-0.55585885 -1.7235092 0.83289683 9211275
-0.5591892 -1.7235085 0.83289719 9145482
-0.56251955 -1.7235078 0.83289742 9079689
-0.5658499 -1.723507 0.83289778 9079432
-0.56918025 -1.7235065 0.83289814 9013896
-0.5725106 -1.7235057 0.8328985 8882311
-0.57584095 -1.723505 0.83289874 8816517
-0.5791713 -1.7235044 0.83289909 8750724
-0.58250159 -1.7235036 0.83289945 8750467
-0.585832 -1.723503 0.83289975 8750210
-0.58916235 -1.7235023 0.83290005 8618880
-0.59249264 -1.7235016 0.8329004 8487294
-0.59582299 -1.723501 0.8329007 8684673
-0.59915334 -1.7235003 0.832901 8947845
-0.60248363 -1.7234995 0.83290136 9079431
-0.60581392 -1.7234988 0.83290166 9013638
-0.60914427 -1.7234981 0.83290201 8947846
-0.61247456 -1.7234975 0.83290231 8816260
-0.61580491 -1.7234969 0.83290261 8684673
-0.6191352 -1.723496 0.83290297 8355709
-0.62246549 -1.7234954 0.83290333 7960951
-0.62579584 -1.7234948 0.83290356 7368814
-0.62912613 -1.7234942 0.83290386 6316127
-0.63245648 -1.7234936 0.83290416 5263440
-0.63164461 -1.7129545 0.83786094 3157807
-0.62965429 -1.6995389 0.84417075 1973789
-0.63197768 -1.6971223 0.84530741 3026219
-0.63525581 -1.6971225 0.84530729 3092013
-0.63853389 -1.6971223 0.84530735 3223599
-0.64181191 -1.6971223 0.84530741 3289649
-0.662655 -1.7404923 0.82490909 328965
-0.6680485 -1.7454777 0.8225643 328965
-0.67231148 -1.7476507 0.82154226 328965
-0.67658544 -1.7498292 0.82051772 329221
-0.68087023 -1.7520131 0.81949055 329221
-0.68478793 -1.7532911 0.81888944 329221
-0.68841749 -1.753866 0.81861907 329221
-0.69204944 -1.7544411 0.81834859 329221
-0.6956836 -1.755016 0.81807816 394758
-0.69931996 -1.7555907 0.81780785 394758
-0.70258176 -1.7552786 0.81795466 394758
-0.70576084 -1.7547754 0.81819129 394758
-0.70893794 -1.7542725 0.8184278 394758
-0.71211308 -1.7537698 0.81866437 394758
-0.71528637 -1.753267 0.81890082 394758
-0.71829873 -1.752399 0.819309 394758
-0.72106993 -1.7509868 0.81997317 395014
-0.72383636 -1.7495766 0.82063645 395015
-0.72659808 -1.7481686 0.82129872 460551
-0.72935522 -1.7467626 0.82195997 460551
-0.73210776 -1.7453592 0.82262015 460807
-0.73453093 -1.7432308 0.82362115 526344
-0.73685658 -1.740904 0.8247155 526344
-0.73917663 -1.7385855 0.82580596 526600
-0.74149036 -1.7362733 0.82689345 526601
-0.74379778 -1.7339675 0.8279779 592137
-0.74585325 -1.7311301 0.82931244 592137
-0.74761397 -1.7276751 0.8309375 592394
-0.74936777 -1.7242346 0.83255559 657930
-0.75111437 -1.7208083 0.83416718 658187
-0.75285387 -1.7173959 0.83577204 723723
-0.75374812 -1.7122016 0.83821511 855566
-0.75458223 -1.7069232 0.84069777 1052945
-0.75541115 -1.7016782 0.84316462 1382166
-0.75654131 -1.6971148 0.84531093 3224113
-0.75981933 -1.6971147 0.84531099 3289392
-0.76309741 -1.6971147 0.84531099 3157806
-0.76637542 -1.6971146 0.84531105 3026476
-0.76965463 -1.697117 0.84530991 2763304
-0.7856608 -1.7234899 0.83290595 8750466
-0.78899133 -1.7234899 0.83290595 8882052
-0.79232192 -1.7234899 0.83290595 8947846
-0.79565245 -1.7234899 0.83290595 9013638
-0.79898298 -1.7234898 0.83290601 9079430
-0.80231351 -1.7234898 0.83290601 8816002
-0.80564409 -1.7234898 0.83290601 8553087
-0.80897462 -1.7234898 0.83290601 8553087
-0.81230521 -1.7234898 0.83290601 8618880
-0.81563574 -1.7234896 0.83290601 8750210
-0.81896627 -1.7234896 0.83290601 8750467
-0.82229686 -1.7234896 0.83290601 8750724
-0.82562739 -1.7234896 0.83290601 8882310
-0.82895797 -1.7234896 0.83290601 8948103
-0.83228844 -1.7234895 0.83290607 9013896
-0.83561903 -1.7234895 0.83290607 9079689
-0.83894956 -1.7234895 0.83290607 9145225
-0.84228015 -1.7234895 0.83290607 9211018
-0.84561062 -1.7234894 0.83290613 9211275
-0.84894121 -1.7234894 0.83290613 9145482
-0.85227174 -1.7234894 0.83290613 9013896
-0.5502975 -1.7448972 0.8191129 5197903
-0.54734546 -1.7262652 0.82791716 5526868
-0.54708487 -1.7157283 0.83289611 9211018
-0.55040294 -1.7157277 0.83289641 9276811
-0.55372095 -1.715727 0.83289671 9276811
-0.55703902 -1.7157263 0.83289707 9211018
-0.56035709 -1.7157255 0.83289737 9145481
-0.56367505 -1.7157248 0.83289772 9079688
-0.56699312 -1.7157242 0.83289802 8948103
-0.57031113 -1.7157236 0.83289832 8750725
-0.5736292 -1.7157229 0.83289862 8224381
-0.57694721 -1.7157221 0.83289903 7763573
-0.58026522 -1.7157215 0.83289927 7566193
-0.58358324 -1.7157209 0.83289957 7500142
-0.58690125 -1.7157202 0.83289999 7236970
-0.59021926 -1.7157195 0.83290029 6908005
-0.59353727 -1.7157187 0.83290058 6579041
-0.59685528 -1.715718 0.83290094 6842212
-0.60017329 -1.7157174 0.83290124 7105384
-0.60349131 -1.7157167 0.8329016 7697521
-0.60680926 -1.715716 0.8329019 8355452
-0.61012739 -1.7157158 0.83290207 8750210
-0.61344564 -1.7157156 0.83290207 8618881
-0.61676383 -1.7157155 0.83290219 8487295
-0.62008202 -1.7157154 0.83290219 7960951
-0.62340027 -1.7157153 0.83290225 7500400
-0.62671852 -1.7157153 0.83290225 6381919
-0.63003671 -1.7157152 0.83290231 4802889
-0.6312263 -1.7103047 0.83545893 3420979
-0.62983364 -1.6984186 0.84107542 1776410
-0.63077021 -1.6925124 0.84386623 1842203
-0.63282478 -1.6894642 0.84530658 2829097
-0.63609129 -1.6894658 0.84530592 3092013
-0.63935786 -1.6894671 0.84530526 3355185
-0.64262396 -1.6894674 0.84530509 3289905
-0.64588988 -1.6894673 0.84530514 3224370
-0.67314941 -1.7480778 0.81761003 328965
-0.67742956 -1.7502594 0.81657922 328965
-0.68172067 -1.7524463 0.8155458 328965
-0.68551046 -1.7534055 0.81509262 328965
-0.68914396 -1.7539809 0.81482065 329221
-0.69277984 -1.7545565 0.81454861 328965
-0.69641775 -1.7551316 0.81427693 328965
-0.70004642 -1.7556794 0.81401801 329221
-0.70323008 -1.7551757 0.81425601 329221
-0.70641178 -1.7546723 0.81449401 329221
-0.70959151 -1.7541689 0.81473184 394758
-0.71276933 -1.7536657 0.81496966 394758
-0.71594524 -1.7531626 0.8152073 394758
-0.71887738 -1.752104 0.8157075 394758
-0.72165024 -1.7506909 0.8163752 394758
-0.7244184 -1.7492801 0.81704187 460551
-0.72718173 -1.747871 0.81770772 460551
-0.72994053 -1.7464644 0.81837243 460551
-0.7326948 -1.74506 0.81903607 460807
-0.73503017 -1.7427316 0.82013631 460808
-0.7373566 -1.7404038 0.82123619 460808
-0.73967755 -1.7380844 0.82233214 526344
-0.74199212 -1.7357715 0.82342517 526601
-0.74430037 -1.7334648 0.8245151 592137
-0.74623954 -1.7303712 0.82597697 592137
-0.74800044 -1.7269158 0.82760966 592394
-0.74975431 -1.7234753 0.82923543 592394
-0.75150096 -1.7200488 0.83085459 658186
-0.75309539 -1.7163242 0.83261454 658187
-0.7539354 -1.7110165 0.83512253 723979
-0.75476915 -1.7057406 0.83761555 855565
-0.75559765 -1.7004981 0.84009278 1052945
-0.75418723 -1.6905676 0.84478533 1447959
-0.75692421 -1.6894495 0.84531361 3289906
-0.76019037 -1.6894501 0.84531331 3355185
-0.76345801 -1.6894537 0.84531164 3092013
-0.76672572 -1.6894573 0.84530991 2829097
-0.78267086 -1.7157038 0.83290768 8355709
-0.78598905 -1.7157037 0.83290774 8618624
-0.78930724 -1.7157035 0.8329078 8750210
-0.79262549 -1.7157035 0.8329078 8421245
-0.79594362 -1.7157034 0.83290786 7763314
-0.79926187 -1.7157034 0.83290786 7171177
-0.80258012 -1.7157034 0.83290786 6842469
-0.80589831 -1.7157034 0.83290786 6579297
-0.8092165 -1.7157034 0.83290792 6842213
-0.81253475 -1.7157034 0.83290792 7236713
-0.815853 -1.7157034 0.83290792 7434349
-0.81917119 -1.7157034 0.83290792 7565936
-0.82248944 -1.7157034 0.83290792 7697779
-0.82580763 -1.7157032 0.83290792 8158587
-0.82912582 -1.7157032 0.83290792 8684931
-0.83244407 -1.7157032 0.83290792 8948103
-0.83576232 -1.7157032 0.83290792 9013896
-0.83908051 -1.7157032 0.83290792 9145481
-0.8423987 -1.7157031 0.83290797 9211018
-0.84571695 -1.7157031 0.83290797 9276811
-0.84903514 -1.7157031 0.83290797 9276811
-0.85235339 -1.7157031 0.83290797 9145482
-0.54981476 -1.7418503 0.81682789 5132110
-0.54687059 -1.7232674 0.8256498 5461075
-0.54498726 -1.7080034 0.83289605 8290945
-0.54829305 -1.7080028 0.83289635 8817032
-0.55159891 -1.7080021 0.83289659 9014154
-0.5549047 -1.7080015 0.83289695 9211018
-0.55821049 -1.7080008 0.83289731 9211018
-0.56151628 -1.7080001 0.83289766 9145481
-0.56482214 -1.7079993 0.8328979 8882310
-0.56812793 -1.7079988 0.8328982 8553345
-0.57143372 -1.707998 0.83289862 8092538
-0.57473952 -1.7079974 0.83289891 7368815
-0.57804543 -1.7079971 0.83289909 6710885
-0.5813514 -1.707997 0.83289915 6579298
-0.58465743 -1.7079968 0.83289909 6447712
-0.5879634 -1.7079968 0.83289921 6118490
-0.59126937 -1.7079967 0.83289921 5657939
-0.59457541 -1.7079966 0.83289927 5197645
-0.59788138 -1.7079964 0.83289933 4737094
-0.60118741 -1.7079964 0.83289939 4342337
-0.60449338 -1.7079961 0.83289945 5789526
-0.60779935 -1.707996 0.83289951 7236971
-0.61110538 -1.7079959 0.83289957 7895158
-0.61441135 -1.7079959 0.83289963 8224122
-0.61771739 -1.7079959 0.83289963 8224379
-0.62102336 -1.7079958 0.83289969 7697779
-0.62432939 -1.7079957 0.83289969 7171435
-0.62763536 -1.7079955 0.83289975 5460818
-0.63080859 -1.7076583 0.83305991 3618614
-0.63001311 -1.6972977 0.83797836 1644824
-0.63094831 -1.6913915 0.84078223 1381653
-0.63187915 -1.6855332 0.84356332 1710617
-0.63366562 -1.6818627 0.84530586 2565926
-0.63692015 -1.6818641 0.84530509 3157806
-0.64017463 -1.6818656 0.84530449 3420977
-0.6434291 -1.681867 0.84530377 3421235
-0.64668334 -1.6818676 0.84530342 3487284
-0.67827576 -1.7506905 0.81263119 328965
-0.68257308 -1.7528807 0.81159151 328965
-0.68623441 -1.7535199 0.811288 329221
-0.68987185 -1.754096 0.81101453 328965
-0.69351149 -1.7546718 0.81074113 328965
-0.69715339 -1.7552475 0.81046784 329221
-0.70069319 -1.7555768 0.81031156 329221
-0.70387948 -1.7550727 0.81055081 394758
-0.70706391 -1.7545689 0.81079 394758
-0.71024632 -1.7540652 0.8110292 394758
-0.71342677 -1.7535613 0.81126833 394758
-0.71660531 -1.753058 0.81150734 394758
-0.71945697 -1.7518088 0.81210029 394758
-0.72223145 -1.7503948 0.81277162 394758
-0.72500134 -1.748983 0.81344175 460551
-0.72776639 -1.7475731 0.81411105 460551
-0.7305268 -1.7461655 0.81477928 460551
-0.73319662 -1.7445672 0.81553817 460551
-0.73553014 -1.7422317 0.81664681 460808
-0.73785734 -1.7399029 0.81775236 460808
-0.74017912 -1.7375828 0.8188538 526344
-0.74249452 -1.7352691 0.81995225 526344
-0.74480355 -1.7329615 0.82104766 526601
-0.74662632 -1.7296115 0.82263803 526601
-0.74838722 -1.7261559 0.82427853 592394
-0.7501412 -1.7227151 0.82591194 592394
-0.75188798 -1.7192885 0.82753867 658186
-0.75328338 -1.7151364 0.82950974 658187
-0.75412279 -1.709831 0.83202845 723723
-0.75495619 -1.7045575 0.8345319 723980
-0.75547093 -1.6986531 0.83733487 921359
-0.75381315 -1.6882107 0.84229219 1316117
-0.75405174 -1.6818436 0.8453148 3487284
-0.75730711 -1.6818469 0.84531337 3420978
-0.76056278 -1.6818506 0.84531164 3420977
-0.76381838 -1.681854 0.84530991 3026219
-0.76707399 -1.6818576 0.84530824 2434339
-0.78300923 -1.7079756 0.83290917 8355709
-0.78631526 -1.7079756 0.83290917 8158329
-0.78962117 -1.7079756 0.83290923 7829365
-0.79292715 -1.7079755 0.83290929 6908006
-0.79623306 -1.7079754 0.83290935 5460818
-0.79953897 -1.7079753 0.83290941 4473923
-0.80284494 -1.7079751 0.83290946 4868681
-0.80615085 -1.707975 0.83290946 5329231
-0.80945683 -1.7079749 0.83290952 5789782
-0.81276274 -1.7079748 0.83290958 6250076
-0.81606871 -1.7079748 0.83290964 6513505
-0.81937462 -1.7079747 0.8329097 6645091
-0.82268053 -1.7079746 0.83290976 6842471
-0.82598656 -1.7079746 0.83290976 7566194
-0.82929254 -1.7079746 0.83290976 8224380
-0.83259851 -1.7079746 0.83290976 8619138
-0.83590448 -1.7079744 0.83290982 8948103
-0.83921045 -1.7079744 0.83290982 9145481
-0.84251642 -1.7079744 0.83290982 9145482
-0.84582245 -1.7079744 0.83290982 9211018
-0.84912843 -1.7079744 0.83290982 8948361
-0.85243434 -1.7079743 0.83290988 8685703
-0.54933292 -1.7388085 0.81454664 5066318
-0.54639649 -1.7202747 0.82338619 5395282
-0.54352409 -1.702144 0.83203334 5132367
-0.54619879 -1.700335 0.83289611 7240574
-0.54949266 -1.7003349 0.83289617 7963011
-0.55278653 -1.7003348 0.83289623 8751240
-0.5560804 -1.7003347 0.83289629 9079690
-0.55937427 -1.7003345 0.83289635 9145482
-0.56266814 -1.7003344 0.83289635 9079688
-0.56596202 -1.7003344 0.83289641 8553345
-0.56925589 -1.7003343 0.83289647 8027001
-0.57254976 -1.7003343 0.83289647 7632243
-0.57584363 -1.7003342 0.83289653 7237485
-0.5791375 -1.7003341 0.83289659 6974313
-0.58243138 -1.700334 0.83289665 6908263
-0.58572525 -1.7003338 0.83289671 6776677
-0.58901912 -1.7003337 0.83289677 6250590
-0.59231299 -1.7003336 0.83289677 5724246
-0.59560686 -1.7003336 0.83289683 5131853
-0.59890068 -1.7003335 0.83289683 4473923
-0.60219455 -1.7003334 0.83289689 4342338
-0.60548842 -1.7003331 0.83289695 5395025
-0.60878235 -1.7003331 0.83289695 6447713
-0.61207616 -1.700333 0.83289701 7303021
-0.61537004 -1.7003329 0.83289707 8092536
-0.61866391 -1.7003328 0.83289713 8092536
-0.62195778 -1.7003326 0.83289719 7500399
-0.62525165 -1.7003325 0.83289725 6579299
-0.62854546 -1.7003325 0.83289731 4605509
-0.63019264 -1.6961761 0.83487964 2105376
-0.63112742 -1.690272 0.83769548 1776411
-0.63205695 -1.684414 0.84048939 1184530
-0.63298076 -1.6785998 0.84326237 1315860
-0.63473535 -1.6748986 0.84502769 1973532
-0.63774061 -1.6743129 0.84530693 3157805
-0.64098299 -1.6743138 0.84530652 3355185
-0.64422512 -1.6743143 0.84530634 3420978
-0.64746726 -1.6743147 0.8453061 3552564
-0.65070939 -1.6743152 0.84530592 3618613
-0.68695986 -1.7536348 0.80747557 329221
-0.69060129 -1.7542114 0.80720055 328965
-0.69424468 -1.7547873 0.80692589 394758
-0.69789052 -1.7553636 0.806651 394758
-0.70134115 -1.755474 0.80659831 394758
-0.70453006 -1.7549696 0.80683893 394758
-0.70771718 -1.7544652 0.80707943 394758
-0.71090227 -1.7539611 0.80731988 394758
-0.71408534 -1.753457 0.80756032 394758
-0.71725655 -1.7529299 0.80781168 394758
-0.7200374 -1.7515128 0.80848753 394758
-0.72281361 -1.7500981 0.80916232 394758
-0.72558522 -1.7486855 0.80983603 460551
-0.72835189 -1.7472748 0.81050885 460551
-0.73111409 -1.7458664 0.81118053 460551
-0.73369634 -1.7440674 0.81203854 460551
-0.7360307 -1.7417312 0.81315279 460808
-0.73835874 -1.7394015 0.81426394 460808
-0.74068129 -1.7370805 0.81537086 526344
-0.74299759 -1.7347658 0.81647485 526344
-0.7452454 -1.7323214 0.81764066 526601
-0.74701345 -1.7288508 0.81929582 526601
-0.74877447 -1.7253952 0.82094395 526601
-0.75052851 -1.7219543 0.82258505 592393
-0.75227535 -1.7185276 0.82421947 592394
-0.75347137 -1.7139481 0.8264035 658186
-0.75431031 -1.7086447 0.82893288 658187
-0.75514328 -1.7033739 0.83144677 658187
-0.75509411 -1.6962787 0.8348307 789773
-0.75343943 -1.6858563 0.83980149 1118994
-0.75120515 -1.6743038 0.8453114 3552820
-0.75444835 -1.6743064 0.84531015 3486771
-0.75769156 -1.674309 0.84530884 3355185
-0.76093382 -1.6743095 0.8453086 3354928
-0.76417524 -1.6743084 0.84530914 2697255
-0.78005135 -1.7003045 0.8329106 7829364
-0.78334516 -1.7003044 0.83291066 8290171
-0.78663898 -1.7003044 0.83291066 7566449
-0.78993273 -1.7003043 0.83291072 6776677
-0.79322654 -1.7003042 0.83291078 5789783
-0.79652035 -1.700304 0.83291084 4802888
-0.79981411 -1.7003039 0.8329109 4276544
-0.80310792 -1.7003038 0.83291095 4868681
-0.80640179 -1.7003038 0.83291095 5526867
-0.80969554 -1.7003037 0.83291101 6052955
-0.81298935 -1.7003036 0.83291107 6579298
-0.81628311 -1.7003036 0.83291113 6842471
-0.81957692 -1.7003034 0.83291119 6974056
-0.82287073 -1.7003033 0.83291125 7105899
-0.82616448 -1.7003032 0.83291125 7500657
-0.8294583 -1.7003031 0.83291131 7895415
-0.83275205 -1.700303 0.83291137 8355966
-0.83604586 -1.7003028 0.83291143 8882309
-0.83933961 -1.7003027 0.83291149 9145481
-0.84263343 -1.7003027 0.83291155 9079689
-0.8459273 -1.7003027 0.83291155 9013897
-0.84922105 -1.7003026 0.83291161 8225925
-0.85251486 -1.7003025 0.83291167 7503232
-0.85580862 -1.7003024 0.83291173 7305595
-0.54885179 -1.7357718 0.81226933 5131854
-0.54592317 -1.7172868 0.82112634 5329233
-0.54322594 -1.6996927 0.82955647 6382177
-0.54426318 -1.6931392 0.83269668 6185055
-0.54740065 -1.6927203 0.83289731 8619911
-0.55068243 -1.6927199 0.83289748 8882825
-0.55396414 -1.6927196 0.83289766 9211018
-0.55724585 -1.6927192 0.83289784 9211018
-0.56052756 -1.6927189 0.83289802 9211018
-0.56380928 -1.6927185 0.8328982 9013895
-0.56709099 -1.6927181 0.83289832 8619138
-0.5703727 -1.6927178 0.83289856 8224380
-0.57365441 -1.6927174 0.83289874 7566450
-0.57693624 -1.6927173 0.8328988 6908264
-0.58021802 -1.6927171 0.83289886 6645092
-0.58349985 -1.6927171 0.83289886 6579298
-0.58678168 -1.692717 0.83289886 6316126
-0.59006345 -1.692717 0.83289891 5855575
-0.59334528 -1.6927168 0.83289897 5395024
-0.59662706 -1.6927167 0.83289903 4868681
-0.59990889 -1.6927166 0.83289909 4408130
-0.60319066 -1.6927165 0.83289915 5066060
-0.60647249 -1.6927164 0.83289921 6447713
-0.60975426 -1.6927162 0.83289927 7631986
-0.61303604 -1.6927161 0.83289933 8026743
-0.61631787 -1.6927161 0.83289939 8355709
-0.6195997 -1.6927161 0.83289939 7960951
-0.62288147 -1.692716 0.83289933 7369070
-0.6261633 -1.6927159 0.83289939 6250333
-0.62944508 -1.6927158 0.83289945 4408130
-0.63130665 -1.6891524 0.83460689 2236962
-0.63223487 -1.6832943 0.83741373 1381653
-0.63327402 -1.6777699 0.84006077 921102
-0.6350857 -1.6742097 0.8417666 1052688
-0.63688976 -1.6706659 0.84346461 1513495
-0.63868618 -1.6671379 0.84515512 1907996
-0.64178407 -1.6668142 0.84531015 3157806
-0.64501452 -1.666815 0.84530973 3223599
-0.64824498 -1.6668159 0.84530926 3420978
-0.65147543 -1.6668168 0.84530884 3618356
-0.65470594 -1.6668178 0.84530842 3815991
-0.69497937 -1.7549031 0.80310273 394758
-0.6986292 -1.7554799 0.80282634 329221
-0.70199025 -1.7553711 0.80287844 329221
-0.7051819 -1.7548661 0.80312037 394758
-0.70837158 -1.7543615 0.80336225 394758
-0.71155936 -1.7538569 0.80360401 394758
-0.71474516 -1.7533523 0.80384576 394758
-0.71783626 -1.7526345 0.80418962 394758
-0.72061878 -1.7512165 0.80486906 394758
-0.72339672 -1.749801 0.80554736 394758
-0.72616994 -1.7483876 0.80622458 460551
-0.72893834 -1.7469759 0.80690098 460551
-0.73170215 -1.7455666 0.80757624 460551
-0.73419678 -1.7435671 0.80853432 460807
-0.73653197 -1.74123 0.80965412 460808
-0.73886073 -1.7388994 0.81077087 460808
-0.74118418 -1.7365774 0.81188333 526344
-0.74350125 -1.734262 0.81299281 526344
-0.74563277 -1.7315602 0.8142873 526601
-0.74740094 -1.7280896 0.81595027 526601
-0.74916208 -1.7246337 0.81760609 526601
-0.75091618 -1.7211927 0.81925493 592137
-0.75266314 -1.7177658 0.82089692 592394
-0.75365955 -1.7127593 0.82329571 657930
-0.75449789 -1.707458 0.82583582 658187
-0.7553305 -1.7021897 0.82836008 658187
-0.75471753 -1.6939063 0.83232898 723979
-0.74514747 -1.666815 0.84530973 3815991
-0.74837703 -1.666814 0.84531021 3618356
-0.75160658 -1.6668129 0.84531081 3420978
-0.75483614 -1.6668117 0.84531128 3223599
-0.75806564 -1.6668106 0.84531188 3157805
-0.76564902 -1.6757963 0.8410064 1710617
-0.77711803 -1.6926955 0.83290923 7368814
-0.78039974 -1.6926954 0.83290929 7895414
-0.78368151 -1.6926953 0.83290935 8290172
-0.78696328 -1.6926953 0.83290935 8026743
-0.79024506 -1.6926951 0.83290935 7631729
-0.79352683 -1.692695 0.83290935 6447712
-0.79680854 -1.692695 0.83290941 5131597
-0.80009031 -1.6926949 0.83290946 4473923
-0.80337203 -1.6926948 0.83290952 4934473
-0.8066538 -1.6926947 0.83290958 5395024
-0.80993551 -1.6926945 0.83290964 5855575
-0.81321728 -1.6926944 0.8329097 6316126
-0.81649899 -1.6926943 0.83290976 6579298
-0.81978077 -1.6926942 0.83290982 6710884
-0.82306254 -1.6926942 0.83290982 6908520
-0.82634425 -1.6926942 0.83290982 7566450
-0.8296259 -1.6926938 0.83291 8224380
-0.83290756 -1.6926935 0.83291018 8619138
-0.83618915 -1.6926932 0.83291036 8948103
-0.8394708 -1.6926929 0.83291054 9145481
-0.8427524 -1.6926925 0.8329106 9211018
-0.84603405 -1.6926923 0.83291078 9211018
-0.84931564 -1.6926918 0.83291095 8882825
-0.8525973 -1.6926914 0.83291107 8554374
-0.54837149 -1.7327403 0.80999583 5131854
-0.54545069 -1.7143041 0.81887031 5263440
-0.54339707 -1.6986117 0.82642394 6579299
-0.54443395 -1.6920604 0.82957757 6447970
-0.54546255 -1.6855608 0.83270615 6250591
-0.54859376 -1.6851612 0.8328985 9276811
-0.55186355 -1.6851609 0.83289868 9276811
-0.55513328 -1.6851604 0.83289891 9276811
-0.55840302 -1.68516 0.83289909 9211018
-0.56167275 -1.6851596 0.83289921 9145481
-0.56494254 -1.6851593 0.83289939 9013896
-0.56821227 -1.6851588 0.83289963 8882310
-0.571482 -1.6851586 0.83289975 8553089
-0.57475173 -1.6851583 0.83289993 7895415
-0.57802147 -1.6851578 0.83290017 7368815
-0.5812912 -1.6851575 0.83290029 7302764
-0.58456093 -1.6851571 0.83290046 7171177
-0.58783066 -1.6851568 0.83290064 6907749
-0.59110045 -1.6851565 0.83290076 6513247
-0.59437013 -1.685156 0.832901 6315868
-0.59763986 -1.6851556 0.83290118 6447455
-0.60090959 -1.6851552 0.83290136 6644833
-0.60417932 -1.6851549 0.83290154 7434606
-0.60744917 -1.6851548 0.8329016 8355452
-0.61071897 -1.6851547 0.83290166 8684673
-0.61398882 -1.6851546 0.83290172 8618624
-0.61725861 -1.6851544 0.83290172 8421502
-0.62052846 -1.6851543 0.83290178 7960951
-0.62379825 -1.6851542 0.83290184 7500400
-0.6270681 -1.6851542 0.8329019 6184540
-0.63033789 -1.6851541 0.83290195 4605509
-0.63241327 -1.6821748 0.8343361 2500133
-0.63362467 -1.6770811 0.83678794 1447445
-0.63543659 -1.6735207 0.83850187 855309
-0.63724059 -1.6699756 0.84020823 855309
-0.63903713 -1.6664472 0.84190667 1052688
-0.64082587 -1.6629339 0.84359777 1447446
-0.64260691 -1.6594361 0.84528154 1710617
-0.64579809 -1.6593704 0.84531313 3092012
-0.64901704 -1.6593721 0.84531236 3486770
-0.65223598 -1.6593735 0.8453117 3552563
-0.65545493 -1.659375 0.84531099 3618356
-0.65867394 -1.6593766 0.84531015 3750198
-0.66189289 -1.6593782 0.8453095 3947576
-0.70583481 -1.7547625 0.7993952 394758
-0.70902723 -1.7542574 0.79963833 394758
-0.71221763 -1.7537525 0.7998814 394758
-0.71540606 -1.7532475 0.80012447 394758
-0.71841681 -1.7523386 0.8005619 394758
-0.72120106 -1.7509198 0.80124491 394758
-0.72398067 -1.7495031 0.80192679 394758
-0.72675562 -1.7480891 0.80260754 460551
-0.72952569 -1.7466766 0.80328745 460551
-0.73229122 -1.7452664 0.80396616 460551
-0.73469782 -1.7430661 0.80502546 460807
-0.73703384 -1.740728 0.80615085 460807
-0.73936343 -1.7383964 0.80727315 460808
-0.74168777 -1.7360739 0.80839115 526344
-0.74400562 -1.7337574 0.80950624 526344
-0.74602062 -1.7307984 0.81093061 526601
-0.74778885 -1.7273275 0.81260127 526601
-0.7495501 -1.7238716 0.81426483 592137
-0.75130427 -1.7204304 0.81592143 592393
-0.75300241 -1.7168981 0.81762165 592394
-0.75384778 -1.7115699 0.8201865 657930
-0.75468552 -1.7062707 0.82273722 657930
-0.75551772 -1.7010049 0.82527202 592394
-0.73913115 -1.6593752 0.84531087 3881784
-0.74234867 -1.6593735 0.8453117 3684149
-0.74556613 -1.6593719 0.84531248 3552563
-0.74878365 -1.6593701 0.84531337 3486771
-0.75200111 -1.6593684 0.84531415 3420977
-0.75521857 -1.6593666 0.84531498 2828841
-0.77093637 -1.6851423 0.83290762 5263439
-0.77420616 -1.6851422 0.83290768 6776678
-0.77747595 -1.685142 0.83290774 7631986
-0.78074574 -1.6851419 0.8329078 8092537
-0.7840156 -1.6851419 0.8329078 8487295
-0.78728539 -1.6851419 0.8329078 8618881
-0.79055518 -1.6851418 0.83290786 8750209
-0.79382497 -1.6851417 0.83290792 7960950
-0.7970947 -1.6851414 0.83290803 7105385
-0.80036438 -1.6851411 0.83290815 6579040
-0.80363405 -1.6851408 0.83290827 6381662
-0.80690372 -1.6851405 0.83290845 6315869
-0.81017339 -1.6851403 0.83290863 6644834
-0.81344306 -1.6851399 0.83290881 7039591
-0.81671274 -1.6851395 0.83290893 7236970
-0.81998241 -1.6851393 0.83290911 7303021
-0.82325208 -1.6851389 0.83290929 7566450
-0.82652175 -1.6851385 0.83290941 8158587
-0.82979143 -1.6851382 0.83290952 8750725
-0.83306104 -1.6851379 0.8329097 8948103
-0.83633071 -1.6851375 0.83290988 9079688
-0.83960038 -1.6851373 0.83291006 9145481
-0.84287012 -1.685137 0.83291012 9211018
-0.84613979 -1.6851367 0.8329103 9276811
-0.8494094 -1.6851364 0.83291048 9276811
-0.85267907 -1.6851361 0.83291054 9211018
-0.54789203 -1.7297138 0.80772614 5131854
-0.54497892 -1.7113261 0.81661797 5132111
-0.54356831 -1.6975299 0.82328957 6118748
-0.54460484 -1.690981 0.82645649 6513763
-0.54563314 -1.6844838 0.82959843 6447970
-0.54665327 -1.6780379 0.83271551 6184798
-0.54977822 -1.6776569 0.83289981 9145482
-0.55303609 -1.6776565 0.83289987 9211275
-0.5562939 -1.6776562 0.83290011 9211018
-0.55955178 -1.6776558 0.83290029 9145482
-0.56280965 -1.6776555 0.83290046 9079689
-0.56606752 -1.677655 0.83290064 9013896
-0.56932539 -1.6776547 0.83290082 9013640
-0.57258326 -1.6776543 0.832901 8882311
-0.57584113 -1.6776539 0.83290112 8816517
-0.57909894 -1.6776536 0.83290136 8750467
-0.58235681 -1.6776532 0.83290148 8750210
-0.58561468 -1.677653 0.83290166 8684416
-0.58887249 -1.6776525 0.8329019 8487294
-0.59213036 -1.6776521 0.83290207 8355708
-0.59538817 -1.6776518 0.83290225 8553086
-0.59864604 -1.6776514 0.83290243 8947588
-0.60190392 -1.6776512 0.83290255 9211016
-0.60516173 -1.6776507 0.83290279 9144967
-0.6084196 -1.6776503 0.83290291 9013382
-0.61167747 -1.67765 0.83290309 8881796
-0.61493528 -1.6776495 0.83290333 8684674
-0.61819309 -1.6776493 0.83290344 8487294
-0.6214509 -1.6776488 0.83290368 8092537
-0.62470877 -1.6776485 0.8329038 7697779
-0.62796664 -1.6776482 0.83290398 6513506
-0.63122445 -1.6776478 0.83290416 5395025
-0.63397574 -1.6763917 0.83351159 2763306
-0.63578784 -1.6728306 0.83523357 1579032
-0.63759202 -1.6692854 0.8369481 1118481
-0.6393885 -1.6657557 0.83865488 789516
-0.64117748 -1.6622423 0.84035397 789516
-0.64295858 -1.658744 0.84204566 855309
-0.64521587 -1.6564257 0.84316671 1250067
-0.64748418 -1.6541561 0.84426421 1513238
-0.64978713 -1.6519909 0.84531128 2631718
-0.6529941 -1.6519917 0.84531087 3026476
-0.65620106 -1.6519924 0.84531051 3355185
-0.65940803 -1.6519934 0.84531009 3420978
-0.66261506 -1.6519942 0.84530967 3487027
-0.66582197 -1.6519949 0.84530932 3618356
-0.66902888 -1.6519955 0.84530908 3881527
-0.67223573 -1.651996 0.84530878 4210234
-0.71899831 -1.7520422 0.79692858 394758
-0.72178423 -1.7506225 0.79761517 395015
-0.72456557 -1.7492052 0.7983005 460551
-0.72734225 -1.7477902 0.79898477 460551
-0.73011404 -1.7463769 0.79966825 460551
-0.73285615 -1.7449096 0.80037773 460807
-0.73519951 -1.7425643 0.80151188 460808
-0.73753643 -1.7402256 0.80264282 460808
-0.73986691 -1.7378931 0.80377078 460808
-0.74219197 -1.7355694 0.80489445 526344
-0.74451071 -1.7332522 0.80601501 526344
-0.74640882 -1.7300357 0.80757046 526601
-0.74817711 -1.7265646 0.80924898 526601
-0.74993849 -1.7231086 0.81092024 592137
-0.75169271 -1.7196672 0.81258452 592394
-0.75319111 -1.7157055 0.81450021 592394
-0.75403613 -1.7103798 0.81707567 657930
-0.72995406 -1.6519939 0.84530985 4012856
-0.73316038 -1.6519932 0.84531021 3684148
-0.73636657 -1.6519922 0.84531057 3552563
-0.7395727 -1.6519911 0.84531116 3420978
-0.74277884 -1.6519903 0.84531158 3420978
-0.74598497 -1.6519892 0.84531212 3157806
-0.74919105 -1.651988 0.84531265 2763305
-0.75439262 -1.6561151 0.84331691 1052687
-0.76805741 -1.6776435 0.83290625 5131854
-0.77131528 -1.6776434 0.83290625 6316127
-0.77457309 -1.6776431 0.83290642 7434607
-0.7778309 -1.6776427 0.8329066 7960951
-0.78108871 -1.6776425 0.83290678 8355709
-0.78434652 -1.6776421 0.83290696 8684673
-0.78760433 -1.6776417 0.83290708 8816260
-0.79086214 -1.6776414 0.83290726 8947846
-0.79411995 -1.677641 0.83290744 9079174
-0.79737777 -1.6776407 0.83290756 9145223
-0.80063558 -1.6776404 0.83290768 9013380
-0.80389333 -1.6776401 0.83290786 8553087
-0.80715114 -1.6776398 0.83290803 8289915
-0.81040901 -1.6776396 0.83290815 8421501
-0.81366682 -1.6776392 0.83290827 8618623
-0.81692457 -1.677639 0.83290845 8684673
-0.82018238 -1.6776386 0.83290863 8684931
-0.82344019 -1.6776383 0.83290875 8750724
-0.82669795 -1.6776381 0.83290887 8882310
-0.82995576 -1.6776377 0.83290905 8948104
-0.83321357 -1.6776373 0.83290923 9013896
-0.83647132 -1.677637 0.83290935 9079689
-0.83972913 -1.6776366 0.83290952 9145225
-0.84298688 -1.6776363 0.8329097 9211018
-0.84624469 -1.677636 0.83290988 9211275
-0.84950244 -1.6776357 0.83291 9145482
-0.85276026 -1.6776354 0.83291012 9079689
-0.55038524 -1.7454458 0.79634982 5000267
-0.54741341 -1.7266923 0.80546033 5131854
-0.54450798 -1.7083533 0.81436938 5131854
-0.54373968 -1.6964476 0.82015318 5658198
-0.54477578 -1.6899009 0.82333362 5987420
-0.54580373 -1.6834061 0.82648879 6447970
-0.54682356 -1.6769625 0.82961911 6381921
-0.54783529 -1.6705694 0.83272487 6119005
-0.55095404 -1.670207 0.832901 9211274
-0.55420011 -1.6702067 0.83290118 9342860
-0.55744618 -1.6702062 0.8329013 9277067
-0.56069225 -1.670206 0.83290148 9276810
-0.56393832 -1.6702056 0.83290166 9211018
-0.56718439 -1.6702051 0.83290184 9145225
-0.57043046 -1.6702048 0.83290201 9079432
-0.57367653 -1.6702044 0.83290219 9079432
-0.57692254 -1.670204 0.83290243 9013896
-0.5801686 -1.6702037 0.83290249 9013896
-0.58341467 -1.6702033 0.83290273 9013896
-0.58666074 -1.670203 0.83290291 9013896
-0.58990681 -1.6702026 0.83290309 9145225
-0.59315282 -1.6702023 0.83290327 9211017
-0.59639889 -1.6702019 0.83290344 9145224
-0.59964496 -1.6702017 0.83290362 9013895
-0.60289097 -1.6702012 0.83290374 8948103
-0.60613704 -1.6702009 0.83290392 8948103
-0.60938317 -1.6702007 0.83290404 8947846
-0.61262929 -1.6702006 0.8329041 8882053
-0.61587548 -1.6702006 0.8329041 8816259
-0.61912167 -1.6702006 0.8329041 8553088
-0.62236786 -1.6702006 0.8329041 8289916
-0.62561399 -1.6702003 0.83290416 7895158
-0.62886018 -1.6702003 0.83290416 7303021
-0.63210636 -1.6702003 0.83290416 6710884
-0.63535255 -1.6702003 0.83290416 4934474
-0.63794392 -1.6685945 0.83368433 2368547
-0.63974041 -1.6650641 0.83539939 1447446
-0.64152938 -1.6615498 0.83710659 855309
-0.64339179 -1.6582471 0.83871108 723723
-0.64566839 -1.6559726 0.83981597 657930
-0.64793861 -1.6537045 0.84091783 855309
-0.65020138 -1.6514405 0.84201777 986895
-0.65245759 -1.6491823 0.84311473 1118481
-0.65470749 -1.6469306 0.84420866 1316116
-0.65695101 -1.644685 0.8452996 1447446
-0.66013867 -1.6446679 0.84530795 2763048
-0.66333395 -1.6446683 0.84530771 3026476
-0.66652918 -1.6446689 0.84530741 3289392
-0.66972435 -1.6446691 0.84530729 3420977
-0.67291915 -1.6446687 0.84530753 3618099
-0.67611396 -1.6446681 0.84530777 3815478
-0.67930883 -1.6446676 0.84530801 4013112
-0.68250358 -1.6446671 0.8453083 4276027
-0.68569797 -1.6446656 0.84530896 4736063
-0.68889236 -1.6446643 0.84530967 5262149
-0.6920867 -1.6446627 0.84531039 5788234
-0.69528109 -1.6446613 0.84531105 5985356
-0.74037099 -1.7373891 0.80026376 526344
-0.74269688 -1.7350645 0.80139309 526344
-0.70486605 -1.6446611 0.84531116 5985356
-0.70806164 -1.6446624 0.84531057 5722442
-0.71125728 -1.6446637 0.84530991 5262149
-0.71445286 -1.644665 0.84530932 4670527
-0.71764845 -1.6446662 0.84530872 4276027
-0.72084361 -1.6446664 0.84530854 4012856
-0.72403878 -1.6446667 0.84530848 3815478
-0.72723395 -1.644667 0.8453083 3552563
-0.73042905 -1.6446671 0.84530824 3420977
-0.73362386 -1.6446667 0.84530848 3223855
-0.73681855 -1.6446661 0.84530878 3026220
-0.74001324 -1.6446654 0.84530914 2697512
-0.74345165 -1.6451725 0.84506273 986638
-0.74962121 -1.6513435 0.84206492 789516
-0.75583619 -1.6575571 0.8390463 921102
-0.76519799 -1.6701964 0.83290619 5263439
-0.76844412 -1.6701963 0.83290625 6776678
-0.77169019 -1.6701961 0.83290625 7368815
-0.77493632 -1.6701959 0.83290631 8026744
-0.77818239 -1.6701956 0.83290642 8289916
-0.78142852 -1.6701956 0.83290648 8618880
-0.78467458 -1.6701953 0.8329066 8816259
-0.78792065 -1.6701951 0.83290672 8882053
-0.79116678 -1.670195 0.83290678 8947846
-0.79441279 -1.6701947 0.8329069 8948103
-0.7976588 -1.6701944 0.83290708 8948103
-0.80090481 -1.670194 0.83290726 9013896
-0.80415082 -1.6701938 0.83290744 9145224
-0.80739683 -1.6701934 0.8329075 9211017
-0.81064284 -1.6701932 0.83290762 9079689
-0.81388885 -1.670193 0.8329078 9013896
-0.81713486 -1.6701926 0.83290797 9013896
-0.82038087 -1.6701922 0.83290809 9013896
-0.82362688 -1.670192 0.83290827 9013896
-0.82687289 -1.6701916 0.83290845 9079432
-0.83011889 -1.6701913 0.83290863 9079432
-0.83336484 -1.6701909 0.83290875 9145225
-0.83661085 -1.6701906 0.83290887 9211018
-0.83985686 -1.6701903 0.83290905 9276811
-0.84310287 -1.67019 0.83290923 9277068
-0.84634882 -1.6701896 0.83290935 9342604
-0.84959489 -1.6701895 0.83290946 9145482
-0.54989946 -1.7423799 0.79407024 4868682
-0.54693556 -1.7236762 0.80319816 5066318
-0.54403782 -1.7053854 0.81212455 5131854
-0.5439111 -1.6953646 0.81701493 5329489
-0.54494685 -1.6888202 0.82020885 5526869
-0.54597443 -1.6823279 0.82337731 5987163
-0.54699385 -1.6758864 0.82652092 6381921
-0.54800534 -1.6694958 0.82963967 6316384
-0.54900879 -1.6631551 0.83273411 6053212
-0.5521214 -1.6628109 0.83290219 9408397
-0.55535579 -1.6628104 0.83290231 9539982
-0.55859011 -1.66281 0.83290255 9474189
-0.56182444 -1.6628097 0.83290273 9342604
-0.56505883 -1.6628094 0.83290285 9276811
-0.56829315 -1.662809 0.83290303 9145482
-0.57152754 -1.6628087 0.83290321 9079689
-0.57476187 -1.6628083 0.83290339 9079432
-0.57799619 -1.6628079 0.83290362 9079432
-0.58123058 -1.6628076 0.83290374 9013896
-0.58446491 -1.6628073 0.83290392 9013896
-0.58769935 -1.6628071 0.83290404 9079432
-0.5909338 -1.6628071 0.83290404 9145225
-0.59416831 -1.6628071 0.83290404 9145225
-0.59740275 -1.6628071 0.83290404 9079688
-0.6006372 -1.662807 0.83290404 9013895
-0.6038717 -1.662807 0.83290404 9013895
-0.60710615 -1.662807 0.83290404 9013639
-0.61034065 -1.662807 0.83290404 9013639
-0.6135751 -1.662807 0.83290404 8947846
-0.61680955 -1.6628069 0.8329041 8882053
-0.62004405 -1.6628069 0.8329041 8684674
-0.6232785 -1.6628069 0.8329041 8487295
-0.626513 -1.6628069 0.8329041 8158330
-0.62974745 -1.6628067 0.83290416 7763829
-0.6329819 -1.6628067 0.83290416 7237229
-0.6362164 -1.6628067 0.83290416 5987162
-0.63945085 -1.6628067 0.83290416 4737095
-0.6418817 -1.6608568 0.83385575 2368548
-0.64384407 -1.6577945 0.83535033 1250067
-0.64612156 -1.655519 0.83646077 1052688
-0.64839268 -1.65325 0.83756816 657930
-0.6506573 -1.6509874 0.83867234 657930
-0.65291464 -1.6487288 0.83977461 657930
-0.65516537 -1.6464761 0.84087396 658186
-0.65740979 -1.6442298 0.84197026 789516
-0.65982968 -1.6424145 0.84285623 921102
-0.66244882 -1.6410791 0.84350795 987151
-0.6650641 -1.639747 0.84415799 1118481
-0.66767502 -1.6384175 0.84480679 1315860
-0.67040902 -1.6373823 0.84531206 2631719
-0.67359233 -1.6373818 0.8453123 2829098
-0.67677563 -1.6373813 0.84531248 2960683
-0.67995888 -1.6373807 0.84531277 3026220
-0.68314171 -1.6373794 0.84531343 3092013
-0.68632454 -1.6373779 0.8453142 3157807
-0.68950868 -1.6373794 0.84531343 3289392
-0.692693 -1.6373812 0.84531254 3420721
-0.69587725 -1.637383 0.84531176 3420977
-0.69906157 -1.6373848 0.84531081 3420721
-0.7022447 -1.6373839 0.84531122 3420977
-0.70542723 -1.6373819 0.84531224 3486514
-0.70860988 -1.6373799 0.84531313 3355185
-0.71179241 -1.6373779 0.8453142 3223599
-0.71497571 -1.6373776 0.84531432 3157806
-0.71815979 -1.6373788 0.84531373 3026477
-0.72134376 -1.6373798 0.84531319 3026220
-0.7245273 -1.63738 0.84531307 2894891
-0.7277109 -1.6373802 0.84531307 2763049
-0.73111373 -1.6378427 0.84508735 1118480
-0.73531777 -1.6399833 0.84404266 855309
-0.7395336 -1.6421307 0.84299463 723723
-0.74486893 -1.6465911 0.84081793 789516
-0.75105417 -1.6527762 0.83779937 1118481
-0.75912482 -1.6628031 0.83290595 4210752
-0.7623592 -1.6628029 0.83290607 5460818
-0.76559353 -1.6628027 0.83290619 6710885
-0.76882797 -1.6628026 0.83290625 7631986
-0.7720623 -1.6628023 0.83290631 8026744
-0.77529675 -1.6628022 0.83290637 8355966
-0.77853113 -1.6628021 0.83290648 8553345
-0.78176552 -1.662802 0.83290654 8750467
-0.78499991 -1.6628017 0.8329066 8882053
-0.78823423 -1.6628015 0.83290672 8947846
-0.79146868 -1.6628014 0.83290678 9013639
-0.79470301 -1.6628013 0.83290684 9013639
-0.79793745 -1.6628011 0.83290696 9013895
-0.80117178 -1.6628008 0.83290702 9079432
-0.80440623 -1.6628007 0.83290708 9145225
-0.80764055 -1.6628004 0.8329072 9145225
-0.81087494 -1.6628003 0.83290732 9079689
-0.81410933 -1.6628002 0.83290738 9013896
-0.81734365 -1.6627998 0.83290756 9013896
-0.82057792 -1.6627995 0.83290768 9079432
-0.82381219 -1.6627992 0.83290786 9079432
-0.82704651 -1.6627989 0.83290797 9079689
-0.83028084 -1.6627986 0.83290809 9145225
-0.83351517 -1.6627984 0.83290821 9211018
-0.83674943 -1.662798 0.83290839 9342603
-0.8399837 -1.6627978 0.83290857 9408396
-0.84321803 -1.6627975 0.83290875 9474190
-0.8464523 -1.6627971 0.83290887 9474190
-0.84968656 -1.6627969 0.83290905 9211275
-0.54941458 -1.7393191 0.79179442 4671559
-0.54645854 -1.7206649 0.80093986 5066061
-0.54356843 -1.7024224 0.80988348 5066318
-0.5440827 -1.694281 0.81387484 5131854
-0.54511803 -1.6877389 0.81708217 5198161
-0.54614526 -1.6812487 0.82026404 5526869
-0.54716432 -1.6748097 0.82342082 5855834
-0.54817539 -1.6684214 0.82655275 6316385
-0.54917854 -1.6620831 0.82966012 6250591
-0.55017382 -1.6557944 0.83274329 5921627
-0.55328035 -1.655468 0.83290333 9408397
-0.55650306 -1.6554675 0.8329035 9408397
-0.55972582 -1.6554672 0.83290368 9276811
-0.56294858 -1.6554668 0.83290386 9211018
-0.56617141 -1.6554667 0.83290392 9145482
-0.56939423 -1.6554667 0.83290392 9079689
-0.57261711 -1.6554667 0.83290392 9079689
-0.57583994 -1.6554667 0.83290392 9013896
-0.57906276 -1.6554666 0.83290398 9013896
-0.58228564 -1.6554666 0.83290398 9013896
-0.58550847 -1.6554666 0.83290398 9013896
-0.58873135 -1.6554666 0.83290398 9013896
-0.59195423 -1.6554666 0.83290398 9079432
-0.59517699 -1.6554664 0.83290404 9079432
-0.59839988 -1.6554664 0.83290404 9013896
-0.60162276 -1.6554664 0.83290404 9013896
-0.60484558 -1.6554664 0.83290404 9013639
-0.60806847 -1.6554664 0.83290404 9013639
-0.61129135 -1.6554666 0.83290398 9013639
-0.61451417 -1.6554666 0.83290398 8947846
-0.61773705 -1.6554666 0.83290398 8882310
-0.62095994 -1.6554667 0.83290392 8816260
-0.62418282 -1.6554667 0.83290392 8684931
-0.62740564 -1.6554667 0.83290392 8421759
-0.63062859 -1.6554668 0.83290386 8224123
-0.63385141 -1.6554668 0.83290386 7829365
-0.63707435 -1.655467 0.8329038 7303021
-0.64029694 -1.6554662 0.83290416 6710885
-0.64351928 -1.6554651 0.8329047 5197646
-0.64657533 -1.6550646 0.83310109 2697769
-0.64884728 -1.6527947 0.83421391 1842204
-0.65111285 -1.6505312 0.83532357 1184274
-0.65337205 -1.6482742 0.83643019 986895
-0.65562397 -1.6460212 0.83753461 592137
-0.65786922 -1.643774 0.8386364 592137
-0.66036904 -1.6421418 0.83943659 592137
-0.66298968 -1.6408052 0.84009182 592137
-0.6656059 -1.6394709 0.84074605 657930
-0.66821831 -1.6381403 0.84139836 657930
-0.67082649 -1.6368121 0.84204954 723723
-0.6734302 -1.6354859 0.84269965 789516
-0.67602962 -1.6341622 0.84334874 789773
-0.67868471 -1.6329761 0.84393018 855309
-0.68165314 -1.6325054 0.84416091 921358
-0.68461984 -1.632035 0.84439158 986895
-0.6875847 -1.6315649 0.84462202 987151
-0.69054794 -1.6310952 0.84485233 987151
-0.69350928 -1.6306256 0.84508252 987151
-0.69647169 -1.6301624 0.84530962 2500390
-0.69964457 -1.6301643 0.84530872 2434854
-0.70281589 -1.6301626 0.84530956 2500390
-0.70618439 -1.630589 0.8451004 986895
-0.70960855 -1.631132 0.84483427 921359
-0.71303511 -1.6316755 0.84456784 921102
-0.71646398 -1.6322192 0.84430128 855566
-0.71989518 -1.6327633 0.84403449 789773
-0.72368133 -1.6340566 0.84340042 723980
-0.72786927 -1.636189 0.84235501 657930
-0.73206854 -1.6383271 0.84130675 526344
-0.73628008 -1.640473 0.84025472 592393
-0.74050379 -1.6426264 0.83919907 592137
-0.74629134 -1.6480144 0.83655751 986895
-0.75249124 -1.6542118 0.83351916 1579031
-0.75631726 -1.6554611 0.83290666 5131853
-0.75954032 -1.6554615 0.83290642 6710884
-0.7627632 -1.6554617 0.83290637 7237229
-0.76598603 -1.6554615 0.83290642 7763573
-0.76920879 -1.6554614 0.83290648 8158331
-0.77243161 -1.6554613 0.83290654 8421759
-0.77565438 -1.6554612 0.8329066 8684931
-0.7788772 -1.6554611 0.83290666 8816260
-0.78209996 -1.655461 0.83290672 8882309
-0.78532273 -1.655461 0.83290678 8947846
-0.78854555 -1.6554608 0.83290684 9013639
-0.79176831 -1.6554607 0.8329069 9013639
-0.79499114 -1.6554606 0.83290696 9013639
-0.7982139 -1.6554605 0.83290696 9013896
-0.80143666 -1.6554602 0.83290702 9013896
-0.80465943 -1.6554601 0.83290708 9079432
-0.80788219 -1.65546 0.8329072 9079432
-0.81110495 -1.6554599 0.83290726 9013896
-0.81432772 -1.6554596 0.83290738 9013896
-0.81755048 -1.6554595 0.83290744 9013896
-0.82077318 -1.6554593 0.83290756 9013896
-0.82399595 -1.6554592 0.83290768 9013896
-0.82721871 -1.655459 0.83290768 9079689
-0.83044147 -1.6554588 0.8329078 9079689
-0.83366424 -1.6554587 0.83290786 9145482
-0.83688694 -1.6554585 0.83290797 9211018
-0.84010965 -1.6554582 0.83290815 9276811
-0.84333235 -1.655458 0.83290827 9408396
-0.84655499 -1.6554576 0.83290833 9408397
-0.54893053 -1.7362635 0.78952259 4539717
-0.54598236 -1.7176589 0.79868519 5000525
-0.54321098 -1.6997887 0.80748624 5000525
-0.5442543 -1.6931965 0.81073284 4934732
-0.54528934 -1.686657 0.81395358 5066318
-0.54631615 -1.6801691 0.81714886 5197904
-0.54733485 -1.6737324 0.82031888 5461076
-0.54834557 -1.6673464 0.82346392 5855833
-0.54934835 -1.6610105 0.82658434 6250591
-0.55034328 -1.6547239 0.82968038 6053469
-0.55177242 -1.6497185 0.83214557 6447970
-0.55443186 -1.6481799 0.83290344 9342604
-0.55764318 -1.6481799 0.83290344 9342604
-0.56085449 -1.6481799 0.83290344 9342603
-0.56406587 -1.64818 0.83290339 9276811
-0.56727719 -1.64818 0.83290339 9145482
-0.57048851 -1.64818 0.83290339 9079689
-0.57369989 -1.64818 0.83290333 9079689
-0.57691121 -1.64818 0.83290333 9013896
-0.58012253 -1.64818 0.83290333 9013896
-0.58333385 -1.6481801 0.83290327 9079432
-0.58654517 -1.6481801 0.83290327 9079432
-0.58975649 -1.6481801 0.83290327 9013896
-0.59296787 -1.6481802 0.83290321 9013896
-0.59617919 -1.6481802 0.83290321 9013640
-0.59939057 -1.6481804 0.83290315 8948103
-0.60260189 -1.6481804 0.83290315 8948103
-0.60581321 -1.6481804 0.83290315 9013639
-0.60902452 -1.6481805 0.83290309 9013639
-0.61223584 -1.6481805 0.83290309 8948103
-0.61544722 -1.6481805 0.83290309 8948102
-0.61865854 -1.6481806 0.83290303 8882310
-0.62186986 -1.6481806 0.83290303 8882053
-0.62508118 -1.6481806 0.83290303 8816260
-0.62829256 -1.6481807 0.83290297 8684674
-0.63150346 -1.6481797 0.8329035 8618881
-0.63471431 -1.6481783 0.8329041 8355709
-0.63792509 -1.6481773 0.8329047 8092537
-0.64113599 -1.6481762 0.83290517 7697779
-0.64434683 -1.648175 0.83290577 7105642
-0.64755762 -1.6481738 0.83290637 6513506
-0.65076846 -1.6481726 0.83290696 5131853
-0.6538291 -1.6478165 0.83308232 2500391
-0.65608281 -1.6455649 0.8341912 1644825
-0.65832931 -1.6433175 0.835298 1184274
-0.6609093 -1.6418687 0.83601159 657930
