# .PCD v0.7 - Point Cloud Data file format
VERSION 0.7
FIELDS x y z rgb
SIZE 4 4 4 4
TYPE F F F U
COUNT 1 1 1 1
WIDTH 934
HEIGHT 1
VIEWPOINT 0 0 0 1 0 0 0
POINTS 934
DATA ascii
0.20940743 -1.7246001 0.85067785 7427601
0.22257909 -1.7222086 0.84813684 9005076
0.21903938 -1.7203068 0.8490147 8742164
0.21555081 -1.7187809 0.84971899 8216338
0.21218023 -1.7182368 0.8499701 8216338
0.2088515 -1.7180473 0.8500576 7427601
0.20560218 -1.7185723 0.84981531 7427601
0.20239586 -1.7195146 0.84938031 6375950
0.19925274 -1.7210881 0.84865403 6375950
0.19616058 -1.7232111 0.84767407 4929803
0.22955239 -1.7233812 0.8439464 8807700
0.22564761 -1.7185967 0.84616518 9005076
0.22192772 -1.7151939 0.84774333 9005076
0.21840751 -1.7133678 0.8485902 8807700
0.21494456 -1.7119725 0.84923732 8216338
0.21158257 -1.7114135 0.8494966 8281874
0.20828506 -1.7114098 0.84949827 7493137
0.20504732 -1.7119485 0.84924841 7493137
0.20187895 -1.7131484 0.84869194 6441486
0.1987474 -1.71474 0.8479538 6441486
0.19570303 -1.717229 0.84679955 4995339
0.19267386 -1.7199634 0.8455314 4929803
0.18977806 -1.7241368 0.84359592 2957831
0.22887856 -1.7163615 0.84356105 8807700
0.22497588 -1.7115107 0.84582126 9005076
0.22126944 -1.7081321 0.84739554 8807700
0.21776235 -1.7063267 0.84823674 8807700
0.21432577 -1.7050663 0.84882402 8281874
0.21097381 -1.7045029 0.84908646 8281874
0.20770922 -1.7046983 0.84899545 7493137
0.20448215 -1.7052408 0.84874272 7493137
0.20135252 -1.7067034 0.8480612 6441486
0.19823913 -1.7083735 0.84728301 4995339
0.19523712 -1.7111751 0.84597766 4995339
0.19227207 -1.714447 0.8444531 3023623
0.18938941 -1.7186697 0.84248555 2957831
0.1866557 -1.7245779 0.83973265 328705
0.22817673 -1.7091269 0.8433001 8807956
0.22428438 -1.7042731 0.84557229 9070612
0.22060314 -1.7010138 0.84709811 8807700
0.2171026 -1.6991725 0.84796011 8807956
0.21369618 -1.6980773 0.84847277 8281875
0.21035463 -1.6975114 0.84873772 8281875
0.20712392 -1.6979123 0.84855008 7493137
0.20391789 -1.6985512 0.84825099 6441486
0.20081827 -1.7001953 0.84748125 6441486
0.19775109 -1.7022061 0.84653997 4995595
0.1947614 -1.7050358 0.84521532 4995595
0.19186118 -1.7088492 0.8434301 3023623
0.18903862 -1.7135869 0.84121215 328705
0.18636046 -1.7199833 0.83821774 328705
0.22744845 -1.7016906 0.84315878 8807956
0.22357501 -1.6969006 0.84541166 9070612
0.21992277 -1.6937895 0.84687495 8807956
0.21642829 -1.6919061 0.84776074 8807956
0.21305574 -1.6910056 0.84818429 8281875
0.20973262 -1.6905055 0.84841943 7493393
0.2065286 -1.6910471 0.8481648 7493393
0.20336138 -1.6919411 0.84774417 6441486
0.20027368 -1.6936016 0.84696329 6441486
0.19725411 -1.6959636 0.84585238 4995595
0.19427711 -1.6988232 0.8445074 4995595
0.19144064 -1.7031649 0.8424654 3023623
0.18871909 -1.708822 0.83980471 328705
0.18624273 -1.7171963 0.83586586 0
0.23368548 -1.7234339 0.82925498 525825
0.22669142 -1.6940342 0.84314716 8873492
0.22284491 -1.6893699 0.84535122 9070612
0.21922432 -1.6864258 0.84674239 8807956
0.21573953 -1.6845286 0.84763885 8807956
0.21240272 -1.6838362 0.84796602 8282131
0.20911558 -1.6835533 0.84809965 7493393
0.2059233 -1.6841035 0.84783977 7493393
0.20279494 -1.6852512 0.84729737 6441486
0.19971895 -1.6869239 0.84650701 6441486
0.19674554 -1.6896212 0.84523237 4995595
0.19382977 -1.6929728 0.84364873 3023623
0.1910108 -1.6973977 0.8415578 3023623
0.18839003 -1.7039682 0.83845305 328705
0.18624826 -1.7156618 0.83292758 0
0.23279198 -1.714779 0.82967949 525825
0.22589588 -1.6860806 0.8433035 8873492
0.22209623 -1.681699 0.84538352 9070868
0.21851127 -1.6789522 0.8466875 8873492
0.21505053 -1.6771601 0.84753829 8282131
0.21173812 -1.6765784 0.84781444 8282131
0.20848741 -1.6765145 0.84784478 7558929
0.20530705 -1.6770728 0.84757972 7558929
0.20221733 -1.6784703 0.84691632 6507278
0.19916628 -1.6802748 0.84605968 5061131
0.19622888 -1.6832122 0.84466517 5061131
0.19337206 -1.6870313 0.84285218 3023623
0.19063157 -1.6921314 0.84043097 394241
0.18815683 -1.7000728 0.83666098 0
0.23196915 -1.7066952 0.82986271 525825
0.22506459 -1.6778526 0.84361875 8873492
0.22131875 -1.6738052 0.84554917 9136404
0.21778265 -1.671361 0.84671485 8873492
0.21436119 -1.6697999 0.84745938 8347667
0.21105845 -1.6692023 0.84774441 8347667
0.2078466 -1.6693758 0.84766167 7558929
0.20467865 -1.6699449 0.84739023 7558929
0.2016293 -1.6716049 0.84659851 6507278
0.19862217 -1.6737143 0.8455925 5061131
0.19570056 -1.6767031 0.84416699 5061131
0.19290559 -1.6810147 0.84211063 3089159
0.19026098 -1.6869562 0.83927691 394241
0.18799178 -1.6968578 0.83455449 0
0.23121241 -1.6991448 0.82981902 460289
0.22423388 -1.6696419 0.84395522 9136404
0.22051862 -1.6657391 0.84582525 9136404
0.21703669 -1.6636378 0.84683204 8873492
0.21365651 -1.6623218 0.84746265 8347667
0.2103643 -1.6617135 0.84775418 8347667
0.20719306 -1.6621372 0.84755111 7558929
0.20406099 -1.6629227 0.8471747 6507279
0.20103015 -1.6646497 0.84634721 6507279
0.1980678 -1.667069 0.84518808 5061131
0.19516921 -1.6701753 0.84369969 3089159
0.19242683 -1.6748892 0.84144104 3089159
0.18988119 -1.6816986 0.83817834 394241
0.22743188 -1.6677934 0.84125865 8939284
0.22340485 -1.6614575 0.8443085 9136404
0.21972945 -1.6577747 0.84608126 8873492
0.21627344 -1.6557835 0.84703976 8873492
0.21294226 -1.6547745 0.84752548 8347667
0.20967363 -1.6542658 0.84777033 7558929
0.206532 -1.6548439 0.84749204 7558929
0.20343794 -1.6558633 0.84700131 6507279
0.20042019 -1.6576072 0.84616184 6507279
0.19750118 -1.6603211 0.84485555 5061131
0.19465905 -1.663855 0.84315449 3089415
0.19194211 -1.6687158 0.84081459 394497
0.18955809 -1.6769984 0.83682781 0
0.22648606 -1.6588011 0.84201807 8939284
0.22255912 -1.6531523 0.84474969 9136404
0.21895401 -1.6499341 0.84630591 8873492
0.21551156 -1.6479527 0.84726405 8873492
0.21223052 -1.6472601 0.84759903 8347667
0.20900379 -1.6470073 0.84772122 7558929
0.20587292 -1.6475788 0.84744483 7558929
0.20281652 -1.648829 0.84684032 6507279
0.19980907 -1.6505649 0.84600085 6507279
0.19692951 -1.6535369 0.84456366 5061131
0.19413465 -1.6574109 0.84269029 3089415
0.19150388 -1.6629938 0.8399905 394497
0.18933111 -1.6732367 0.83503723 0
0.22552249 -1.6496837 0.84287125 8939284
0.22171856 -1.6449013 0.84519446 9136404
0.21818814 -1.6421832 0.846515 8873492
0.21478717 -1.6404431 0.84736031 8347667
0.211531 -1.6398593 0.84764391 8347667
0.20834513 -1.6398553 0.84764588 7558929
0.20522422 -1.6404148 0.84737402 7558929
0.20220329 -1.6418777 0.84666342 6507279
0.19922237 -1.6437528 0.84575242 5061131
0.19636057 -1.6467878 0.8442781 5061131
0.19361083 -1.6509815 0.84224075 3089415
0.19105147 -1.657145 0.83924651 394497
0.229036 -1.6505314 0.83889484 7953426
0.22457805 -1.6407309 0.84367776 8939284
0.2209011 -1.6368476 0.84557295 9136404
0.21743791 -1.634571 0.84668398 8873492
0.21408546 -1.6331322 0.84738624 8347667
0.2108414 -1.6325531 0.84766877 8347667
0.20769514 -1.6327879 0.84755421 7558929
0.20458567 -1.6333498 0.84727997 6507279
0.20160054 -1.6350292 0.8464604 6507279
0.19865817 -1.6371529 0.84542394 5061131
0.19580092 -1.6401335 0.84396935 5061131
0.1930888 -1.6445783 0.84180021 3089415
0.19059655 -1.6512805 0.83852929 394497
0.22776531 -1.6391786 0.84088928 8939284
0.22374429 -1.6326606 0.84408486 9136404
0.22010209 -1.6289533 0.84590232 8873492
0.21669929 -1.6270647 0.84682828 8873492
0.21339577 -1.625931 0.8473841 8347667
0.21016434 -1.625363 0.84766257 8347667
0.20705631 -1.6258262 0.84743547 7558929
0.20398326 -1.6266085 0.84705192 6507279
0.20100535 -1.6282574 0.84624356 6507279
0.19809827 -1.6306014 0.84509432 5061131
0.19525646 -1.6336281 0.84361053 3089415
0.19258058 -1.6383128 0.84131372 3089415
0.19014439 -1.6454505 0.83781445 394497
0.22683263 -1.6304528 0.84163386 8939284
0.22293714 -1.6248115 0.84441215 9136404
0.21936014 -1.6215259 0.84603035 8873492
0.21597214 -1.6196628 0.84694791 8873492
0.21271375 -1.6188042 0.8473708 8347667
0.20951146 -1.618386 0.84757674 7558929
0.20642385 -1.6189291 0.84730923 7558929
0.20338745 -1.6199344 0.8468141 6507279
0.20041844 -1.6215688 0.84600925 6507279
0.19754964 -1.6241608 0.8447327 5061131
0.19475162 -1.627494 0.84309101 3089415
0.19208024 -1.6321301 0.8408078 394497
0.18980938 -1.6407394 0.83656776 0
0.22593482 -1.6220096 0.84227085 8939284
0.22214098 -1.6170607 0.84471917 9136404
0.21863176 -1.6142176 0.84612578 8873492
0.21526034 -1.612396 0.84702706 8873492
0.21204545 -1.6118008 0.84732151 8347667
0.20888212 -1.6116163 0.84741277 7558929
0.20580409 -1.6121504 0.8471486 7558929
0.20280245 -1.6133635 0.84654838 6507278
0.19983999 -1.6149646 0.84575629 6507278
0.19700505 -1.6177655 0.84437054 5061131
0.1942537 -1.6214319 0.84255666 3089415
0.19165272 -1.6266328 0.83998358 394497
0.18953703 -1.6366278 0.83503872 0
0.22957481 -1.6241202 0.83769387 7953426
0.22505571 -1.6137239 0.84286064 8873748
0.22136696 -1.6094949 0.84496224 9136404
0.21791498 -1.6070127 0.84619588 8873492
0.21458237 -1.6054138 0.84699053 8347667
0.21138336 -1.6048589 0.84726638 8347667
0.20825748 -1.6048958 0.84724796 7558929
0.20518969 -1.6054271 0.84698391 7558929
0.20222379 -1.6068573 0.84627312 6507278
0.19929802 -1.608691 0.84536195 5061131
0.19647317 -1.6114935 0.84396905 5061131
0.19376308 -1.6154451 0.84200513 3089159
0.19123015 -1.6211892 0.83915049 394497
0.23016936 -1.6271052 0.83266401 0
0.22419634 -1.6056029 0.84339857 8873748
0.22060512 -1.6020364 0.84517914 9070868
0.21720973 -1.5999104 0.8462404 8873492
0.21392186 -1.5985831 0.84690315 8347667
0.21073498 -1.5980401 0.84717417 8347667
0.20764521 -1.5982887 0.84705007 7558929
0.2045946 -1.598878 0.8467558 6507278
0.20165378 -1.6004354 0.84597838 6507278
0.19876505 -1.6025056 0.84494489 5061131
0.19594452 -1.6052598 0.84356993 5061131
0.19328092 -1.6095442 0.84143108 3089159
0.19081485 -1.6158208 0.83829755 394497
0.22981872 -1.6229275 0.83120584 0
0.22342345 -1.5981594 0.84362662 9070868
0.2198547 -1.5946782 0.84537238 9070868
0.21651317 -1.5928879 0.84627014 8873492
0.21326642 -1.5918034 0.8468141 8282131
0.21009167 -1.5912731 0.84708005 8282131
0.20703739 -1.5917286 0.84685159 7558929
0.20402209 -1.59253 0.84644967 6507278
0.20108949 -1.5940723 0.84567624 6507278
0.19823962 -1.5963953 0.84451133 5061131
0.19545543 -1.5993882 0.84301031 3089159
0.19280379 -1.6036972 0.84084958 3089159
0.19041534 -1.610606 0.83738494 0
0.22649972 -1.5963101 0.84106344 8873492
0.22266702 -1.5908539 0.84381193 9070868
0.219153 -1.5877115 0.84539491 8873492
0.21583144 -1.5859935 0.84626025 8873492
0.21262395 -1.5851386 0.84669101 8282131
0.20947877 -1.5847651 0.84687918 7558929
0.20644137 -1.5852762 0.84662157 7558929
0.20346051 -1.5862838 0.8461141 6507278
0.20053445 -1.5877982 0.84535122 6507278
0.19771953 -1.5903405 0.84407055 5061131
0.19498207 -1.5936658 0.84239548 3089159
0.19238366 -1.5983766 0.84002244 394497
0.19017664 -1.6068869 0.8357355 0
0.22567484 -1.588582 0.8414765 8873492
0.22192813 -1.5836942 0.84394979 9070868
0.21846545 -1.5808655 0.84538108 8873492
0.21515597 -1.5791591 0.84624451 8873492
0.21198682 -1.5785264 0.84656471 8282131
0.20887695 -1.5783575 0.84665018 7493393
0.20584887 -1.5788631 0.8463943 7558929
0.20290318 -1.5800828 0.84577715 6507278
0.20000128 -1.5817218 0.84494781 5061131
0.19720925 -1.584381 0.8436023 5061131
0.19451803 -1.5880345 0.84175354 3089159
0.19198811 -1.5932868 0.83909595 394497
0.18994662 -1.6032525 0.83405328 0
0.22486797 -1.5810019 0.84184259 8873492
0.22120056 -1.5766321 0.8440637 9070868
0.21778956 -1.5741208 0.84534013 8873492
0.21450746 -1.5725484 0.84613931 8282131
0.21136242 -1.5720266 0.84640449 8282131
0.20828736 -1.5720594 0.8463878 7493393
0.20526852 -1.5725602 0.84613329 7493393
0.20235521 -1.5739698 0.84541678 6441486
0.19949079 -1.5758489 0.84446174 5061131
0.19670236 -1.5784594 0.84313494 5061131
0.19405957 -1.5824609 0.84110105 3089159
0.1916026 -1.5882947 0.83813596 394497
0.22941689 -1.5902976 0.83362073 0
0.22408141 -1.5735869 0.84215212 8873492
0.22048728 -1.5696905 0.84414142 9070868
0.21712145 -1.5674466 0.84528697 8873492
0.21387659 -1.566087 0.84598106 8282131
0.21074229 -1.565571 0.84624457 8282131
0.2077015 -1.5658011 0.84612709 7493393
0.20470937 -1.5664427 0.84579951 6441486
0.20181212 -1.5679073 0.84505183 6441486
0.19898701 -1.5700424 0.84396172 5061131
0.19623314 -1.5728757 0.84251523 3023623
0.19360624 -1.5769409 0.84043974 3023623
0.19124724 -1.5835828 0.83704889 0
0.22900189 -1.5857234 0.83246231 0
0.22330712 -1.5662756 0.84243536 8873492
0.21978463 -1.5628406 0.84419692 9070868
0.21646544 -1.5608767 0.845204 8807956
0.21325837 -1.5597351 0.84578943 8282131
0.2101353 -1.5592303 0.84604836 8282131
0.20712681 -1.5596429 0.8458367 7493393
0.20416825 -1.5604838 0.84540552 6441486
0.20127729 -1.5619233 0.84466732 6441486
0.19848791 -1.5642844 0.84345651 4995595
0.19578204 -1.5674583 0.84182894 3023623
0.19321905 -1.5720167 0.83949131 394241
0.19104075 -1.5802249 0.83528209 0
0.22858855 -1.5811675 0.83130866 0
0.22257087 -1.559262 0.84259194 9070868
0.21909425 -1.5560949 0.84422332 9070868
0.2158159 -1.5543668 0.8451134 8807956
0.21264425 -1.5534251 0.84559852 8282131
0.20954749 -1.5530528 0.84579033 7493393
0.20655613 -1.5535268 0.84554613 7493393
0.20363119 -1.5545671 0.84501022 6441486
0.20075911 -1.5560882 0.84422672 4995595
0.19799718 -1.5586065 0.84292954 4995595
0.19533923 -1.5621209 0.84111941 3023623
0.19284785 -1.5672412 0.83848196 394241
0.19120936 -1.5802627 0.83177471 0
0.2280976 -1.5760429 0.83046305 460033
0.221872 -1.5525402 0.84262282 9070612
0.21842916 -1.5495526 0.84416854 8807956
0.21517809 -1.5479578 0.84499359 8807956
0.21204074 -1.547208 0.84538162 8281875
0.20897736 -1.5470259 0.84547573 7493137
0.20599461 -1.5474943 0.84523344 7493393
0.20310272 -1.5487301 0.844594 6441486
0.20026785 -1.5504882 0.84368443 4995595
0.19750918 -1.55296 0.84240562 4995595
0.19490153 -1.5568354 0.84040052 3023623
0.19248542 -1.5625498 0.83744407 394241
0.22489449 -1.5508628 0.8400563 8873492
0.22119117 -1.545964 0.84260201 9070612
0.2177873 -1.5431973 0.8440398 8807956
0.21454664 -1.5416076 0.84486592 8807956
0.21144219 -1.5410392 0.84516126 8281875
0.20841104 -1.5410385 0.84516156 7493137
0.20544149 -1.5415388 0.84490162 6441486
0.20257996 -1.542949 0.84416884 6441486
0.19978425 -1.5449607 0.84312338 4995595
0.19707039 -1.5477428 0.84167767 3023623
0.19448981 -1.5517836 0.83957779 394241
0.19224757 -1.558969 0.8358438 0
0.22416456 -1.5440059 0.84019428 8873492
0.2205148 -1.5394315 0.84258193 9070612
0.21715294 -1.5369086 0.84389871 8807956
0.21393742 -1.5354391 0.84466577 8281875
0.21085423 -1.534963 0.84491432 8281875
0.20785439 -1.5351373 0.8448233 7493137
0.20491815 -1.5358342 0.84445959 6441486
0.20206244 -1.5372195 0.84373641 6441486
0.19930339 -1.5394642 0.84256488 4995595
0.1966403 -1.5426073 0.84092432 3023623
0.19413884 -1.5472672 0.83849198 394241
0.19206434 -1.555876 0.83399856 0
0.2234467 -1.5372485 0.84030485 8873492
0.21985446 -1.5330287 0.84251708 9070612
0.21652795 -1.5307009 0.84373748 8807956
0.21334526 -1.5294114 0.84441346 8281875
0.21027203 -1.5289409 0.8446601 8281875
0.20730321 -1.5292884 0.84447795 7493137
0.20440044 -1.5301833 0.84400874 6441486
0.20156394 -1.5316553 0.8432371 4995595
0.19883129 -1.5340492 0.84198213 4995595
0.19621523 -1.5375216 0.84016168 3023623
0.19379009 -1.5427761 0.83740699 394241
0.22274549 -1.5306244 0.84036964 8873492
0.219198 -1.5266649 0.84245455 9070612
0.21591012 -1.5245568 0.84356463 8807956
0.21276054 -1.5234504 0.84414715 8281875
0.20970643 -1.5230581 0.8443538 7493137
0.20675905 -1.523504 0.84411895 7493137
0.20388785 -1.5245824 0.84355116 6441486
0.20108803 -1.5262854 0.84265441 4995595
0.19837737 -1.5287941 0.84133339 3023623
0.19580032 -1.5325298 0.83936638 394241
0.19353656 -1.5391176 0.83589756 0
0.22205432 -1.5240842 0.84041393 8873492
0.21855657 -1.5204229 0.84235024 9070612
0.21530224 -1.5184975 0.84336859 8807956
0.21218331 -1.517556 0.84386647 8281875
0.20915978 -1.5173324 0.84398466 7493137
0.2062213 -1.5177792 0.84374839 7493137
0.20338227 -1.5190462 0.84307832 6441486
0.20062184 -1.5210031 0.84204334 4995595
0.19795962 -1.5238496 0.84053802 3023623
0.19545992 -1.52818 0.83824784 394241
0.19337498 -1.5362606 0.8339743 0
0.22137702 -1.5176561 0.84042215 8873492
0.21791996 -1.5142266 0.84224391 9070612
0.21470012 -1.5124907 0.84316587 8807700
0.21161203 -1.5117162 0.84357733 8281875
0.20861857 -1.5116578 0.84360832 7493137
0.20570555 -1.5122379 0.84330022 6441486
0.20287959 -1.5135416 0.84260768 6441486
0.20015804 -1.5157481 0.84143567 4995595
0.19754739 -1.5189581 0.83973062 3023623
0.19512646 -1.5238948 0.83710843 328705
0.22546749 -1.5241327 0.83356905 0
0.22071056 -1.5113176 0.84040576 8807956
0.21729761 -1.5081458 0.84209782 9070612
0.21410862 -1.5065737 0.84293658 8807700
0.21104954 -1.5059526 0.84326786 8281875
0.20808521 -1.5060531 0.84321433 7493137
0.2052049 -1.5068247 0.84280264 6441486
0.20240466 -1.5082692 0.84203202 4995595
0.19970037 -1.510551 0.84081477 3023623
0.19713709 -1.5140895 0.83892703 3023623
0.19490337 -1.5205539 0.83547825 0
0.22491331 -1.5186765 0.8330729 0
0.22005966 -1.505103 0.84034562 8807956
0.21668552 -1.5021509 0.84192741 8807700
0.21352045 -1.5006907 0.84270984 8807700
0.2104899 -1.5002195 0.84296227 8281875
0.20755537 -1.5004838 0.8428207 7493137
0.20470691 -1.5014404 0.84230804 6441486
0.20194614 -1.5031369 0.84139907 4995595
0.19929455 -1.5057868 0.83997923 3023623
0.19681293 -1.5099468 0.83775032 328705
0.19495556 -1.5195557 0.83260185 0
0.22436048 -1.5132378 0.83258593 0
0.21941121 -1.4989158 0.84029305 8807956
0.21608773 -1.4962713 0.84171617 8807956
0.21294805 -1.4949356 0.84243494 8281875
0.20992807 -1.494478 0.84268117 8281875
0.20702466 -1.4949161 0.84244549 7493137
0.20420912 -1.4960655 0.84182692 6441486
0.20148885 -1.4980217 0.84077418 4995595
0.19889058 -1.5010444 0.83914757 3023623
0.19649121 -1.50583 0.83657229 328705
0.22377086 -1.5075412 0.83225703 0
0.21877541 -1.4928306 0.84020746 9070612
0.2154806 -1.4903309 0.84155846 8807956
0.21236628 -1.4891183 0.84221381 8282131
0.20937715 -1.4888288 0.84237027 7493393
0.20648958 -1.4893222 0.84210366 6441486
0.20370466 -1.4906455 0.8413884 6441486
0.20102677 -1.4928752 0.84018338 4995595
0.1984915 -1.4963487 0.83830607 328705
0.19631873 -1.5029625 0.83473164 0
0.22318447 -1.5018764 0.8319307 0
0.21812044 -1.4866142 0.84021485 9070868
0.21485461 -1.4842594 0.84149307 8873492
0.21177104 -1.4832078 0.84206378 8282131
0.2088147 -1.4830993 0.84212279 7558929
0.20596084 -1.483786 0.84175009 6507278
0.20321262 -1.4853318 0.84091103 4995595
0.2005845 -1.4878956 0.83951938 3023623
0.19815196 -1.492147 0.83721179 394241
0.22259407 -1.496191 0.83163536 525825
0.21744443 -1.4802533 0.84032345 9070868
0.21421228 -1.4780755 0.84151065 8873492
0.21116343 -1.4772129 0.84198087 8347667
0.20824003 -1.4772848 0.84194171 7558929
0.20542228 -1.4781814 0.84145296 6507278
0.20271452 -1.4799777 0.84047377 5061131
0.20014261 -1.4829259 0.83886659 3089159
0.19780312 -1.4878744 0.836169 394241
0.22026984 -1.478026 0.83819216 8873748
0.21674177 -1.4737073 0.84055662 9136404
0.21355256 -1.4717718 0.84161621 8873492
0.21054134 -1.471118 0.84197426 8347667
0.20765266 -1.4713817 0.8418299 7558929
0.20487154 -1.4724904 0.84122282 6507279
0.20220517 -1.4745424 0.84009945 5061131
0.19968875 -1.4778671 0.83827925 3089159
0.19761728 -1.4849392 0.83440745 0
0.21947436 -1.4708941 0.83876151 8939284
0.21601152 -1.46697 0.84091902 9136404
0.2128825 -1.4654014 0.84178156 8347667
0.20990558 -1.4649293 0.84204108 7558929
0.20705231 -1.4653882 0.84178877 7558929
0.20430724 -1.4667027 0.84106612 6507279
0.20168269 -1.4690114 0.83979666 5061131
0.19925311 -1.4729619 0.83762455 394497
0.21862996 -1.4634218 0.83954567 8939284
0.21530239 -1.4603972 0.84121573 8873492
0.21222113 -1.4591049 0.84192932 8347667
0.20928116 -1.4588355 0.84207809 7558929
0.20645256 -1.4594084 0.84176177 6507279
0.20373608 -1.4608699 0.84095466 5061387
0.20116369 -1.4635161 0.83949357 3089415
0.19883487 -1.4682029 0.8369056 460033
0.21782157 -1.45622 0.84020835 9136404
0.21457705 -1.4537165 0.8415966 8873748
0.21154031 -1.4526743 0.84217465 8347667
0.20863906 -1.4526178 0.84220588 7558929
0.20584878 -1.4534068 0.84176838 6507279
0.20317084 -1.4550921 0.84083384 5061387
0.20064507 -1.4580318 0.83920366 3154951
0.19839537 -1.4632804 0.83629316 460033
0.22059146 -1.4539019 0.83817881 8939284
0.21700248 -1.448953 0.84093481 9136404
0.21382661 -1.4468635 0.84209841 8939284
0.21084276 -1.4461298 0.84250706 8347667
0.20798294 -1.4463047 0.84240967 7624465
0.20522997 -1.4472996 0.84185559 6507279
0.20259133 -1.4492123 0.84079039 5126923
0.20010853 -1.4524144 0.8390072 3154951
0.19801901 -1.4588702 0.83541209 0
0.22123979 -1.4368448 0.84439659 4081488
0.21837303 -1.4368448 0.84439659 4081488
0.2155063 -1.4368451 0.84439647 4081488
0.21263959 -1.4368454 0.84439629 4081488
0.20977287 -1.4368457 0.84439611 4081488
0.20690614 -1.4368459 0.84439594 4081488
0.20403941 -1.4368463 0.84439576 4081488
0.20117271 -1.4368466 0.84439558 4081488
0.19830593 -1.4368465 0.84439564 4081488
0.19765972 -1.4546024 0.83446556 0
0.2723757 -1.4328978 0.84332561 1711393
0.26917315 -1.430992 0.84439594 4081488
0.22345348 -1.4309936 0.84439516 4081488
0.22059596 -1.4309933 0.84439522 4081488
0.21773843 -1.4309931 0.84439534 4081488
0.2148809 -1.4309928 0.84439546 4081488
0.21202338 -1.4309927 0.84439558 4081488
0.20916586 -1.4309925 0.8443957 4081488
0.20630834 -1.4309922 0.84439582 4081488
0.20345081 -1.430992 0.84439594 4081488
0.2005935 -1.4309934 0.84439522 4081488
0.19773562 -1.4309903 0.84439683 4081488
0.19498 -1.4318042 0.84393978 1448220
0.27272362 -1.4334459 0.83973157 1711393
0.26879954 -1.4275367 0.84306443 1579806
0.26552966 -1.4251837 0.84439152 4081488
0.26268053 -1.4251788 0.84439421 4081488
0.25983256 -1.4251808 0.84439313 4081488
0.22280408 -1.4251763 0.8443957 4081488
0.21995577 -1.4251761 0.84439582 4081488
0.21710746 -1.4251759 0.84439594 4081488
0.21425915 -1.4251757 0.84439605 4081488
0.21141084 -1.4251754 0.84439617 4081488
0.20856252 -1.4251753 0.84439629 4081488
0.20571429 -1.4251755 0.84439611 4081488
0.20286582 -1.4251742 0.84439683 4081488
0.20001744 -1.4251735 0.84439731 4081488
0.19716883 -1.4251709 0.84439874 4081488
0.19432062 -1.4251713 0.8443985 4081488
0.27309126 -1.4340985 0.83606929 1777443
0.26912367 -1.4279763 0.83953685 1579806
0.26542658 -1.4232366 0.84222126 1448220
0.26203343 -1.4201196 0.84398663 3949644
0.25906837 -1.4194008 0.84439379 4081488
0.25623009 -1.4194059 0.84439087 4081488
0.25339061 -1.419404 0.844392 4081488
0.25055158 -1.4194047 0.84439164 4081488
0.24771129 -1.4193977 0.84439552 4081488
0.2448718 -1.4193957 0.84439677 4081488
0.24203268 -1.4193957 0.84439671 4081488
0.22499762 -1.4193939 0.84439766 4081488
0.22215888 -1.4193964 0.84439623 4081488
0.21931972 -1.4193964 0.84439635 4081488
0.21648055 -1.4193962 0.84439647 4081488
0.21364139 -1.4193959 0.84439659 4081488
0.21080215 -1.4193952 0.84439701 4081488
0.20796306 -1.4193954 0.84439689 4081488
0.20512363 -1.4193932 0.84439814 4081488
0.20228441 -1.4193925 0.84439856 4081488
0.19944595 -1.4193975 0.8443957 4081488
0.1966068 -1.4193974 0.84439576 4081488
0.19376831 -1.4194025 0.84439284 4081488
0.19092926 -1.4194033 0.84439236 4081488
0.27362365 -1.4356545 0.83188343 4213074
0.26944965 -1.4284223 0.83599693 1579806
0.26573202 -1.423593 0.83874369 1448220
0.26218751 -1.4196364 0.840994 1316633
0.25876468 -1.4162872 0.84289896 1184791
0.25557226 -1.4142026 0.84408468 3883851
0.25264972 -1.4136626 0.84439182 4081488
0.24981909 -1.4136591 0.84439373 4081488
0.24698867 -1.4136567 0.84439504 4081488
0.24415839 -1.4136554 0.84439588 4081488
0.24132845 -1.4136561 0.84439546 4081488
0.23849939 -1.4136622 0.844392 4081488
0.2356687 -1.4136583 0.84439421 4081488
0.23283812 -1.4136549 0.84439617 4081488
0.23000783 -1.4136533 0.84439707 4081488
0.22717842 -1.4136573 0.84439474 4081488
0.22434787 -1.4136541 0.84439665 4081488
0.2215178 -1.4136537 0.84439683 4081488
0.21868773 -1.4136535 0.84439695 4081488
0.21585745 -1.4136518 0.8443979 4081488
0.21302757 -1.4136529 0.84439725 4081488
0.21019723 -1.4136508 0.8443985 4081488
0.20736785 -1.4136556 0.84439576 4081488
0.20453791 -1.4136565 0.84439528 4081488
0.20170818 -1.4136587 0.84439397 4081488
0.19887814 -1.4136587 0.84439397 4081488
0.19604808 -1.4136587 0.84439397 4081488
0.19321804 -1.4136587 0.84439397 4081488
0.19038798 -1.4136587 0.84439397 4081488
0.1622581 -1.4153197 0.84344923 4476247
0.15904425 -1.4115407 0.84559858 4608090
0.15596442 -1.4089625 0.84706509 4015695
0.15314412 -1.4089625 0.84706509 4015695
0.15032381 -1.4089625 0.84706509 4015695
0.14750351 -1.4089625 0.84706509 4015695
0.14468321 -1.4089625 0.84706509 4015695
0.14199485 -1.4104583 0.84621423 1185048
0.27384251 -1.43548 0.82867199 1777443
0.2698943 -1.4295254 0.83207303 4213074
0.26698238 -1.4292659 0.83222133 4213074
0.26247898 -1.419934 0.83755124 1316633
0.25904268 -1.4165304 0.83949524 1184791
0.25570017 -1.4135917 0.84117365 1184791
0.2524479 -1.4111136 0.84258902 987668
0.24929073 -1.4091429 0.84371465 3818058
0.24627616 -1.4079858 0.84437555 3817800
0.24344935 -1.4079506 0.84439558 4081488
0.24062862 -1.4079524 0.84439462 4081488
0.23780833 -1.4079571 0.844392 4081488
0.23498671 -1.4079531 0.84439415 4081488
0.23216526 -1.4079503 0.84439576 4081488
0.22934388 -1.407948 0.84439713 4081488
0.226523 -1.4079489 0.84439665 4081488
0.22370185 -1.4079479 0.84439719 4081488
0.22088082 -1.4079478 0.84439731 4081488
0.21805963 -1.4079465 0.84439802 4081488
0.21523896 -1.4079487 0.84439671 4081488
0.21241824 -1.4079508 0.84439552 4081488
0.20959723 -1.4079508 0.84439552 4081488
0.20677622 -1.4079508 0.84439552 4081488
0.2039552 -1.4079508 0.84439552 4081488
0.2011342 -1.4079508 0.84439552 4081488
0.19831319 -1.4079508 0.84439552 4081488
0.19549218 -1.4079508 0.84439552 4081488
0.19267116 -1.4079508 0.84439552 4081488
0.18985015 -1.4079508 0.84439552 4081488
0.18727079 -1.4099392 0.84325993 3752522
0.18453218 -1.4106635 0.8428461 3884108
0.18175733 -1.4111049 0.84259403 4015438
0.17895044 -1.4112842 0.84249163 4081488
0.17611012 -1.4111749 0.84255415 4213074
0.17323965 -1.4107901 0.84277385 4278867
0.17033428 -1.4100707 0.84318471 4410710
0.16741668 -1.4092089 0.84367692 4410710
0.16450249 -1.4083458 0.84416991 4476503
0.16156819 -1.4072522 0.84479457 4542040
0.15862329 -1.4060081 0.84550512 5134176
0.15567806 -1.4047083 0.84624755 3883851
0.15286379 -1.4047083 0.84624755 3883851
0.15004951 -1.4047083 0.84624755 3883851
0.14723523 -1.4047083 0.84624755 3883851
0.14442095 -1.4047083 0.84624755 3883851
0.14180905 -1.4070003 0.8449384 0
0.27422279 -1.4361899 0.82494754 1777443
0.27010638 -1.4293305 0.8288818 1711393
0.26634455 -1.4243047 0.83176434 1448220
0.26329058 -1.4231887 0.83240449 4213074
0.2593213 -1.416774 0.83608353 1184791
0.25597444 -1.4138323 0.83777076 1184791
0.25271127 -1.4113121 0.83921635 987668
0.24950621 -1.4090765 0.84049857 855825
0.24634863 -1.4070718 0.8416484 723982
0.24324405 -1.4053407 0.84264123 723982
0.24018145 -1.4038253 0.84351039 526859
0.23722951 -1.4029659 0.8440032 3554628
0.23430912 -1.4022849 0.84439385 4081488
0.2314966 -1.4022818 0.84439564 4081488
0.22868414 -1.402279 0.84439719 4081488
0.225872 -1.4022783 0.84439766 4081488
0.2230601 -1.4022791 0.84439713 4081488
0.22024807 -1.4022791 0.84439713 4081488
0.21743605 -1.4022791 0.84439713 4081488
0.21462402 -1.4022791 0.84439713 4081488
0.21181199 -1.4022791 0.84439713 4081488
0.20899996 -1.4022791 0.84439713 4081488
0.20618793 -1.4022791 0.84439713 4081488
0.20337591 -1.4022791 0.84439713 4081488
0.20056386 -1.4022791 0.84439713 4081488
0.19775183 -1.4022791 0.84439713 4081488
0.19493981 -1.4022791 0.84439713 4081488
0.19212779 -1.4022793 0.84439707 4081488
0.1893262 -1.4023635 0.84434873 1316377
0.18691534 -1.4056628 0.84245646 3357249
0.18413812 -1.4060128 0.84225565 3488836
0.18134274 -1.4062204 0.84213656 3620679
0.17853113 -1.4062952 0.84209377 3818058
0.17570244 -1.4062219 0.84213579 4015437
0.17285684 -1.4059937 0.84226662 4541782
0.16999654 -1.4056226 0.84247953 4804954
0.1671211 -1.4050953 0.8427819 5002333
0.16423136 -1.4044111 0.84317434 5134175
0.16132796 -1.4035664 0.84365886 5134176
0.15842248 -1.4026664 0.84417504 4804696
0.15550451 -1.401602 0.84478551 3356992
0.1526939 -1.401602 0.84478551 3356992
0.14988327 -1.401602 0.84478551 3356992
0.14707266 -1.4016021 0.84478545 3356992
0.14426205 -1.4016021 0.84478545 3356992
0.14180727 -1.4056287 0.84247607 0
0.27045077 -1.429868 0.82526308 1711393
0.26665229 -1.4246638 0.82826042 1448220
0.26306188 -1.4205194 0.83064747 1316633
0.25962144 -1.4171382 0.83259469 4213074
0.25673231 -1.4168859 0.83274013 4213074
0.25297508 -1.4115099 0.83583641 987668
0.24976084 -1.4092411 0.83714318 855825
0.24659519 -1.4072086 0.8383137 723982
0.24348681 -1.405475 0.83931226 723982
0.24041681 -1.4039346 0.84019947 526859
0.2373738 -1.4025234 0.84101224 395016
0.23437746 -1.4013716 0.84167558 395016
0.23140147 -1.4003203 0.8422811 197636
0.22845265 -1.3994179 0.84280086 197636
0.22560002 -1.3991278 0.84296787 0
0.22279175 -1.3991278 0.84296787 0
0.21998346 -1.3991278 0.84296787 0
0.21717519 -1.3991278 0.84296787 0
0.21436691 -1.3991278 0.84296787 0
0.21155864 -1.3991278 0.84296787 0
0.20875037 -1.3991278 0.84296787 0
0.20594209 -1.399128 0.84296781 0
0.20313382 -1.399128 0.84296781 0
0.20032555 -1.399128 0.84296781 0
0.19751728 -1.399128 0.84296781 0
0.19470899 -1.399128 0.84296781 0
0.19190072 -1.399128 0.84296781 0
0.18909244 -1.399128 0.84296781 0
0.18673985 -1.4028702 0.84081244 2764854
0.1839589 -1.4031636 0.84064353 2896440
0.1811628 -1.4033386 0.84054273 3093820
0.17835215 -1.4033937 0.84051096 3291199
0.17552641 -1.4033182 0.84055454 3817800
0.17268693 -1.4031163 0.8406707 4146765
0.1698342 -1.4027854 0.84086126 4409938
0.166969 -1.4023254 0.8411262 4607573
0.16409124 -1.4017279 0.84147036 4804696
0.16120194 -1.4009939 0.84189308 4804953
0.15830548 -1.400159 0.84237397 2896697
0.15539968 -1.3991944 0.8429296 2303788
0.15259127 -1.3991944 0.8429296 2303788
0.14978287 -1.3991944 0.84292954 2303788
0.14697444 -1.3991944 0.84292954 2303788
0.14416604 -1.3991944 0.84292954 2238252
0.14180487 -1.40425 0.8400178 0
0.26696685 -1.4250575 0.82472807 1579806
0.26335561 -1.4208198 0.82717907 1316633
0.25988835 -1.4173082 0.82921004 1316633
0.25652501 -1.4143158 0.83094066 1184791
0.25324056 -1.4117146 0.83244509 987668
0.25022346 -1.4106427 0.83306503 4213074
0.24684228 -1.4073459 0.83497179 723982
0.24373007 -1.4056096 0.83597594 723982
0.24065267 -1.4040439 0.8368814 526859
0.23760404 -1.4026181 0.83770621 526859
0.23460329 -1.4014585 0.83837682 395016
0.23162115 -1.4003878 0.83899599 197636
0.22866908 -1.3994844 0.83951855 197636
0.22580341 -1.399128 0.83972472 0
0.22299232 -1.399128 0.83972472 0
0.22018124 -1.399128 0.83972472 0
0.21737015 -1.399128 0.83972472 0
0.21455908 -1.399128 0.83972472 0
0.21174799 -1.399128 0.83972472 0
0.20893691 -1.399128 0.83972472 0
0.20612583 -1.399128 0.83972472 0
0.20331477 -1.399128 0.83972466 0
0.20050368 -1.399128 0.83972466 0
0.1976926 -1.399128 0.83972466 0
0.19488151 -1.399128 0.83972466 0
0.19207044 -1.399128 0.83972466 0
0.18925935 -1.399128 0.83972466 0
0.18666922 -1.4009407 0.83867627 1909029
0.18388711 -1.401214 0.8385182 2040616
0.18109079 -1.4013761 0.83842438 2106666
0.17828043 -1.4014231 0.83839732 2238252
0.17545626 -1.4013498 0.83843958 2435632
0.17261896 -1.4011561 0.83855164 2567217
0.16976947 -1.4008437 0.83873242 2633267
0.16690823 -1.4004097 0.83898336 2699061
0.16403548 -1.3998488 0.83930773 2764854
0.16115159 -1.3991575 0.83970749 2896440
0.15825699 -1.3983318 0.84018517 2896697
0.1553537 -1.3973833 0.84073371 2303788
0.15254626 -1.3973833 0.84073371 2303788
0.1497388 -1.3973833 0.84073371 2238252
0.14693135 -1.3973833 0.84073371 2238252
0.14412391 -1.3973833 0.84073371 2238252
0.14180839 -1.4029384 0.83752096 0
0.26017684 -1.4175987 0.82574785 1316633
0.25680131 -1.4145586 0.82751346 1184791
0.25350606 -1.4119161 0.82904804 987668
0.25027287 -1.4095776 0.83040613 855825
0.24709156 -1.4074935 0.83161658 855825
0.24397375 -1.4057437 0.83263284 723982
0.24089342 -1.4041808 0.83354056 4213074
0.23783711 -1.4027275 0.83438456 526859
0.23482957 -1.4015455 0.83507097 395016
0.23184128 -1.4004556 0.83570397 197636
0.22888593 -1.3995509 0.83622938 197636
0.22600719 -1.3991278 0.83647501 0
0.2231933 -1.3991278 0.83647501 0
0.2203794 -1.3991278 0.83647501 0
0.21756551 -1.3991278 0.83647501 0
0.21475162 -1.3991278 0.83647501 0
0.21193773 -1.3991278 0.83647501 0
0.20912383 -1.3991278 0.83647501 0
0.20630994 -1.3991278 0.83647501 0
0.20349607 -1.399128 0.83647496 0
0.20068218 -1.399128 0.83647496 0
0.19786827 -1.399128 0.83647496 0
0.19505438 -1.399128 0.83647496 0
0.19224049 -1.399128 0.83647496 0
0.1894266 -1.399128 0.83647496 0
0.18669575 -1.3998086 0.83607972 0
0.18391643 -1.4001086 0.83590549 0
0.18112151 -1.400287 0.83580184 0
0.17831145 -1.400341 0.83577049 66050
0.17548598 -1.4002614 0.83581674 263430
0.17264627 -1.4000512 0.83593881 395016
0.1697932 -1.399711 0.83613634 460809
0.16692697 -1.399235 0.83641279 592395
0.16405222 -1.3986593 0.83674711 1777442
0.16116731 -1.3979621 0.83715212 1843236
0.1582717 -1.3971301 0.83763522 1909030
0.15536687 -1.3961703 0.8381927 1250840
0.15255915 -1.3961703 0.8381927 1250840
0.14975142 -1.3961703 0.8381927 1250840
0.14694369 -1.3961703 0.8381927 1250840
0.14413598 -1.3961703 0.8381927 1250840
0.14180768 -1.4015788 0.8350516 0
0.25377202 -1.4121176 0.82564366 987668
0.25052947 -1.4097451 0.82702714 855825
0.24734455 -1.4076602 0.82824296 855825
0.24421848 -1.4058813 0.82928044 723982
0.24112649 -1.4042671 0.83022177 526859
0.23807068 -1.4028373 0.83105564 526859
0.2350564 -1.401633 0.83175796 395016
0.23206188 -1.4005233 0.83240509 197636
0.22910322 -1.3996174 0.83293337 197636
0.22621138 -1.3991278 0.83321893 0
0.22339468 -1.3991278 0.83321893 0
0.22057797 -1.3991278 0.83321893 0
0.21776126 -1.3991278 0.83321893 0
0.21494454 -1.3991278 0.83321893 0
0.21212783 -1.3991278 0.83321893 0
0.20931114 -1.399128 0.83321887 0
0.20649444 -1.399128 0.83321887 0
0.20367773 -1.399128 0.83321887 0
0.20086102 -1.399128 0.83321887 0
0.19804431 -1.399128 0.83321887 0
0.19522761 -1.399128 0.83321887 0
0.19241089 -1.399128 0.83321887 0
0.18959418 -1.399128 0.83321887 0
0.18683706 -1.3996159 0.83293432 0
0.18406254 -1.3999758 0.83272445 0
0.1812693 -1.4001898 0.83259964 0
0.17845884 -1.4002627 0.83255708 0
0.17563064 -1.4001826 0.83260375 0
0.17278491 -1.3999425 0.83274382 0
0.16992308 -1.3995464 0.83297479 0
0.16704549 -1.3989882 0.83330029 0
0.16415304 -1.398267 0.83372086 0
0.16125566 -1.3974692 0.83418626 789775
0.15835123 -1.3965685 0.83471143 855825
0.15543415 -1.3955026 0.83533311 131586
0.15262501 -1.3955026 0.83533311 131586
0.14981586 -1.3955026 0.83533311 131586
0.14700672 -1.3955026 0.83533311 131586
0.14419758 -1.3955026 0.83533311 131586
0.14180909 -1.4002432 0.83256847 0
0.24759813 -1.4078274 0.82486182 855825
0.2444637 -1.4060187 0.82592088 723982
0.24136405 -1.4043783 0.82688159 526859
0.23830472 -1.4029469 0.82771969 526859
0.2352837 -1.4017206 0.82843786 395016
0.23228295 -1.4005915 0.82909906 197636
0.22932099 -1.3996842 0.82963043 197636
0.22641601 -1.3991278 0.82995617 0
0.22359647 -1.3991278 0.82995617 0
0.22077693 -1.3991278 0.82995617 0
0.21795741 -1.3991278 0.82995617 0
0.21513787 -1.3991278 0.82995617 0
0.21231835 -1.3991278 0.82995617 0
0.20949881 -1.3991278 0.82995617 0
0.20667928 -1.3991278 0.82995617 0
0.20385975 -1.3991278 0.82995617 0
0.20104022 -1.3991278 0.82995617 0
0.19822069 -1.3991278 0.82995617 0
0.19540116 -1.3991278 0.82995617 0
0.19258162 -1.3991278 0.82995617 0
0.1897621 -1.3991278 0.82995617 0
0.1871867 -1.4011248 0.82878685 0
0.18446088 -1.4019393 0.82830983 0
0.18169694 -1.4024599 0.82800502 0
0.17889346 -1.4026582 0.82788885 0
0.17605251 -1.402535 0.82796097 0
0.17317531 -1.4020828 0.82822579 0
0.17025484 -1.4012192 0.82873154 0
0.16732502 -1.4002351 0.82930779 0
0.16440308 -1.3992866 0.82986325 0
0.1614597 -1.3980926 0.83056241 0
0.15851974 -1.3968832 0.83127064 0
0.15557383 -1.3955629 0.83204389 0
0.15276174 -1.3955629 0.83204389 0
0.14994967 -1.3955629 0.83204389 0
0.14713758 -1.3955629 0.83204389 0
0.14432551 -1.3955629 0.83204389 0
0.14181168 -1.3989209 0.83007741 0
0.23853905 -1.4030557 0.82437736 526859
0.2355115 -1.4018086 0.82511067 395016
0.23250447 -1.4006597 0.82578623 197636
0.2295392 -1.3997511 0.82632059 197636
0.226621 -1.3991277 0.82668704 0
0.22379865 -1.3991277 0.82668704 0
0.22097629 -1.3991277 0.82668704 0
0.21815392 -1.3991277 0.82668704 0
0.21533158 -1.3991278 0.82668698 0
0.21250923 -1.3991278 0.82668698 0
0.20968686 -1.3991278 0.82668698 0
0.20686451 -1.3991278 0.82668698 0
0.20404215 -1.3991278 0.82668698 0
0.2012198 -1.3991278 0.82668698 0
0.19839743 -1.3991278 0.82668698 0
0.19557507 -1.3991278 0.82668698 0
0.19275272 -1.3991278 0.82668698 0
0.18993035 -1.3991278 0.82668698 0
0.1589362 -1.3996384 0.82638681 0
0.15583895 -1.3968828 0.82800716 0
0.15302129 -1.3968828 0.82800716 0
0.15020363 -1.3968828 0.82800716 0
0.14738597 -1.3968828 0.82800716 0
0.14456829 -1.3968828 0.82800716 0
0.14191288 -1.3987075 0.8269341 0
